# .PCD v0.7 - Point Cloud Data file format
VERSION 0.7
FIELDS x y z
SIZE 4 4 4
TYPE F F F
COUNT 1 1 1
WIDTH 2297
HEIGHT 1
VIEWPOINT 0 0 0 1 0 0 0
POINTS 2297
DATA ascii
0 0 -1
0 0 -1
0 0 -1
0.19291 0.47911 1.2557
0.19378 0.46431 1.2615
0.19213 0.44666 1.2411
0.18952 0.4199 1.2367
0.18724 0.40417 1.2086
0.18672 0.38631 1.2118
0.18643 0.37258 1.2147
0.18698 0.3568 1.2159
0.18692 0.34485 1.2114
0.18598 0.32763 1.2048
0.18377 0.30912 1.1975
0.18226 0.28996 1.1785
0.18126 0.27411 1.1675
0.1818 0.25831 1.1711
0.18662 0.25518 1.2035
0.18872 0.24057 1.213
0.18748 0.22649 1.2125
0.1843 0.20623 1.1984
0.14619 0.15361 0.95349
0.092382 0.087978 0.60318
0.081378 0.072429 0.52774
0.079222 0.062854 0.51332
0.078092 0.056899 0.50585
0.07696 0.049227 0.50061
0.076335 0.04366 0.49514
0.07584 0.036384 0.49182
0.07527 0.030926 0.48837
0.075056 0.023842 0.4853
0 0 -1
0 0 -1
0 0 -1
0 0 -1
0 0 -1
0 0 -1
0 0 -1
0 0 -1
0 0 -1
0 0 -1
0 0 -1
0 0 -1
0 0 -1
0 0 -1
0 0 -1
0 0 -1
0 0 -1
0 0 -1
0 0 -1
0 0 -1
0 0 -1
0 0 -1
0 0 -1
0 0 -1
0 0 -1
0 0 -1
0 0 -1
0 0 -1
0 0 -1
0 0 -1
0 0 -1
0 0 -1
0 0 -1
0 0 -1
0 0 -1
0 0 -1
0.18223 0.49167 1.2819
0.18263 0.47452 1.2873
0.18029 0.45562 1.2739
0.17641 0.42779 1.2455
0.16733 0.39139 1.1811
0.16801 0.37625 1.186
0.16899 0.36735 1.2015
0.16963 0.3529 1.2062
0.16968 0.34042 1.2025
0.17011 0.32391 1.2008
0.16763 0.30623 1.1854
0.16491 0.28504 1.1617
0.16529 0.27371 1.1617
0.16578 0.25793 1.1652
0.16818 0.24719 1.1755
0.17158 0.23778 1.2088
0.16965 0.22506 1.1975
0.16387 0.19974 1.1622
0.14712 0.16762 1.0255
0.08697 0.091521 0.61507
0.075744 0.073605 0.53433
0.073103 0.063954 0.51598
0.071986 0.057085 0.50801
0.071183 0.049314 0.50201
0.070835 0.043783 0.49603
0.070373 0.036465 0.49346
0.069553 0.031007 0.49015
0.069211 0.023886 0.48757
0 0 -1
0 0 -1
0 0 -1
0 0 -1
0 0 -1
0 0 -1
0 0 -1
0 0 -1
0 0 -1
0 0 -1
0 0 -1
0 0 -1
0 0 -1
0 0 -1
0 0 -1
0 0 -1
0 0 -1
0 0 -1
0 0 -1
0 0 -1
0 0 -1
0 0 -1
0 0 -1
0 0 -1
0 0 -1
0 0 -1
0 0 -1
0 0 -1
0 0 -1
0 0 -1
0 0 -1
0 0 -1
0 0 -1
0 0 -1
0 0 -1
0 0 -1
0.16652 0.49123 1.2877
0.1681 0.47827 1.2937
0.16856 0.46505 1.2934
0.15244 0.40085 1.1791
0.14089 0.36304 1.0938
0.13938 0.34436 1.0846
0.14171 0.33059 1.0877
0.14254 0.32045 1.0923
0.14382 0.3097 1.0953
0.14343 0.29669 1.1023
0.1421 0.28566 1.0916
0.14252 0.27105 1.094
0.14289 0.26015 1.0966
0.14611 0.24654 1.1248
0.14754 0.24087 1.1423
0.14987 0.22725 1.1536
0.1506 0.2161 1.1561
0.15009 0.19868 1.1563
0.13822 0.17083 1.0474
0.085923 0.096671 0.65391
0.070198 0.074124 0.53895
0.067528 0.064327 0.52114
0.065932 0.057176 0.50705
0.065329 0.049399 0.5033
0.064935 0.044073 0.49682
0.064378 0.036597 0.49619
0.06377 0.031221 0.49181
0.063347 0.023854 0.48835
0 0 -1
0 0 -1
0 0 -1
0 0 -1
0 0 -1
0 0 -1
0 0 -1
0 0 -1
0 0 -1
0 0 -1
0 0 -1
0 0 -1
0 0 -1
0 0 -1
0 0 -1
0 0 -1
0 0 -1
0 0 -1
0 0 -1
0 0 -1
0 0 -1
0 0 -1
0 0 -1
0 0 -1
0 0 -1
0 0 -1
0 0 -1
0 0 -1
0 0 -1
0 0 -1
0 0 -1
0 0 -1
0 0 -1
0 0 -1
0 0 -1
0 0 -1
0.15224 0.4961 1.2972
0.15293 0.47948 1.3033
0.15303 0.46564 1.2951
0.13304 0.38783 1.1361
0.12576 0.35439 1.0815
0.12125 0.32908 1.0432
0.11181 0.29729 0.93819
0.10985 0.27176 0.92937
0.10778 0.25777 0.90847
0.10384 0.2426 0.88919
0.1019 0.228 0.86426
0.10109 0.21218 0.86216
0.10441 0.2072 0.88521
0.12801 0.24404 1.0942
0.13369 0.23728 1.1312
0.13605 0.22757 1.1552
0.13671 0.2164 1.1578
0.13704 0.20034 1.1606
0.13373 0.18256 1.123
0.085524 0.10668 0.72697
0.064972 0.075151 0.54977
0.061415 0.064566 0.5243
0.060004 0.057835 0.50957
0.059396 0.049748 0.50852
0.059022 0.044215 0.50023
0.058511 0.036708 0.49759
0.058061 0.031485 0.49327
0.057504 0.023891 0.48908
0 0 -1
0 0 -1
0 0 -1
0 0 -1
0 0 -1
0 0 -1
0 0 -1
0 0 -1
0 0 -1
0 0 -1
0 0 -1
0 0 -1
0 0 -1
0 0 -1
0 0 -1
0 0 -1
0 0 -1
0 0 -1
0 0 -1
0 0 -1
0 0 -1
0 0 -1
0 0 -1
0 0 -1
0 0 -1
0 0 -1
0 0 -1
0 0 -1
0 0 -1
0 0 -1
0 0 -1
0 0 -1
0 0 -1
0 0 -1
0 0 -1
0 0 -1
0.13452 0.4848 1.2714
0.13914 0.48812 1.3171
0.13958 0.47605 1.3214
0.14016 0.45574 1.3219
0.11487 0.36393 1.0965
0.10889 0.32947 1.0444
0.10041 0.29765 0.93934
0.096631 0.27094 0.92341
0.088277 0.23685 0.84142
0.082696 0.2137 0.79192
0.081916 0.19665 0.76521
0.078512 0.18076 0.7446
0.090834 0.19963 0.85478
0.096196 0.20134 0.91998
0.12028 0.23757 1.1327
0.12794 0.23889 1.2035
0.13071 0.23229 1.2298
0.13103 0.21505 1.2337
0.12326 0.19066 1.1641
0.094272 0.13156 0.89615
0.05938 0.077417 0.56373
0.05613 0.065703 0.53138
0.054348 0.058346 0.51613
0.053639 0.050252 0.50921
0.053001 0.044299 0.50094
0.052542 0.036774 0.49825
0.052154 0.031528 0.49642
0.052026 0.024179 0.49165
0 0 -1
0 0 -1
0 0 -1
0 0 -1
0 0 -1
0 0 -1
0 0 -1
0 0 -1
0 0 -1
0 0 -1
0 0 -1
0 0 -1
0 0 -1
0 0 -1
0 0 -1
0 0 -1
0 0 -1
0 0 -1
0 0 -1
0 0 -1
0 0 -1
0 0 -1
0 0 -1
0 0 -1
0 0 -1
0 0 -1
0 0 -1
0 0 -1
0 0 -1
0 0 -1
0 0 -1
0 0 -1
0 0 -1
0 0 -1
0 0 -1
0 0 -1
0.12567 0.51305 1.3368
0.12623 0.4963 1.3431
0.12593 0.48071 1.3474
0.12585 0.46231 1.341
0.12458 0.44393 1.3274
0.12147 0.41509 1.2955
0.11027 0.36429 1.1647
0.092168 0.28549 0.97382
0.078223 0.2371 0.84235
0.073277 0.21393 0.79281
0.072585 0.19686 0.76607
0.067451 0.17598 0.72613
0.071665 0.17731 0.75231
0.085235 0.20156 0.92103
0.11306 0.25578 1.2016
0.11738 0.24938 1.2664
0.11988 0.23953 1.2816
0.12017 0.22175 1.2848
0.11778 0.2043 1.2653
0.10493 0.16586 1.117
0.054459 0.08028 0.58409
0.05052 0.06664 0.53858
0.048482 0.058455 0.52048
0.047569 0.050462 0.51175
0.047099 0.044352 0.50437
0.046752 0.036879 0.50116
0.046322 0.031557 0.49729
0.046156 0.024272 0.49384
0.045862 0.01903 0.49151
0 0 -1
0 0 -1
0 0 -1
0 0 -1
0 0 -1
0 0 -1
0 0 -1
0 0 -1
0 0 -1
0 0 -1
0 0 -1
0 0 -1
0 0 -1
0 0 -1
0 0 -1
0 0 -1
0 0 -1
0 0 -1
0 0 -1
0 0 -1
0 0 -1
0 0 -1
0 0 -1
0 0 -1
0 0 -1
0 0 -1
0 0 -1
0 0 -1
0 0 -1
0 0 -1
0 0 -1
0 0 -1
0 0 -1
0 0 -1
0 0 -1
0.11497 0.54101 1.4079
0.11551 0.52335 1.4193
0.1166 0.51234 1.4305
0.11749 0.49329 1.4368
0.11735 0.47983 1.4392
0.11551 0.45417 1.42
0.10965 0.41735 1.3487
0.10273 0.37473 1.2749
0.091174 0.31687 1.1205
0.080518 0.27166 1.0028
0.067369 0.21956 0.83087
0.062283 0.18482 0.7513
0.067739 0.19255 0.81745
0.078608 0.21583 0.98763
0.10196 0.26697 1.2642
0.10696 0.25659 1.3141
0.10715 0.2446 1.3195
0.10645 0.22644 1.3227
0.10648 0.21221 1.3014
0.10279 0.18688 1.2693
0.050992 0.085367 0.62484
0.044906 0.067726 0.54982
0.042796 0.05882 0.52157
0.041797 0.050568 0.51451
0.041105 0.04476 0.50533
0.040866 0.03718 0.50263
0.040614 0.031683 0.49833
0.040276 0.024298 0.49663
0.040057 0.019135 0.49246
0 0 -1
0 0 -1
0 0 -1
0 0 -1
0 0 -1
0 0 -1
0 0 -1
0 0 -1
0 0 -1
0 0 -1
0 0 -1
0 0 -1
0 0 -1
0 0 -1
0 0 -1
0 0 -1
0 0 -1
0 0 -1
0 0 -1
0 0 -1
0 0 -1
0 0 -1
0 0 -1
0 0 -1
0 0 -1
0 0 -1
0 0 -1
0 0 -1
0 0 -1
0 0 -1
0 0 -1
0 0 -1
0 0 -1
0 0 -1
0.038988 -0.18777 0.47783
0.097969 0.54139 1.4138
0.099016 0.52603 1.4288
0.099748 0.51619 1.4396
0.10154 0.50438 1.463
0.10245 0.4934 1.4809
0.10314 0.47614 1.49
0.10202 0.45824 1.4816
0.10095 0.42758 1.4504
0.096594 0.39813 1.3938
0.087632 0.33719 1.256
0.071117 0.26689 1.0199
0.057555 0.20841 0.83439
0.064389 0.21955 0.93367
0.073822 0.23352 1.059
0.090832 0.27465 1.3115
0.093878 0.26479 1.3549
0.094048 0.25243 1.3575
0.092906 0.23369 1.3466
0.092176 0.21568 1.3308
0.090847 0.19409 1.3053
0.052539 0.10356 0.75564
0.039683 0.070446 0.57512
0.036721 0.060483 0.53405
0.036273 0.051348 0.51535
0.035358 0.044958 0.5103
0.035001 0.037538 0.50457
0.034634 0.03177 0.50024
0.03442 0.024506 0.49891
0.034265 0.019206 0.49564
0.034022 0.012044 0.49269
0 0 -1
0 0 -1
0 0 -1
0 0 -1
0 0 -1
0 0 -1
0 0 -1
0 0 -1
0 0 -1
0 0 -1
0 0 -1
0 0 -1
0 0 -1
0 0 -1
0 0 -1
0 0 -1
0 0 -1
0 0 -1
0 0 -1
0 0 -1
0 0 -1
0 0 -1
0 0 -1
0 0 -1
0 0 -1
0 0 -1
0 0 -1
0 0 -1
0 0 -1
0 0 -1
0 0 -1
0 0 -1
0 0 -1
0.033484 -0.19037 0.4795
0.080935 0.54141 1.4151
0.082054 0.52648 1.4358
0.083465 0.52177 1.4575
0.084293 0.50737 1.4772
0.085267 0.49638 1.4885
0.085655 0.48009 1.5045
0.08538 0.46319 1.4954
0.084525 0.43915 1.4885
0.08354 0.41404 1.4554
0.080004 0.37985 1.3999
0.072502 0.32537 1.2601
0.058882 0.2533 1.0241
0.059011 0.24324 1.0265
0.065053 0.25309 1.1462
0.07729 0.28338 1.3522
0.07906 0.27282 1.3849
0.079047 0.259 1.3875
0.078235 0.23599 1.3661
0.076782 0.2202 1.3499
0.076212 0.19723 1.3347
0.062864 0.15203 1.1
0.035113 0.076096 0.61779
0.031054 0.061454 0.54504
0.030309 0.052667 0.52979
0.029645 0.045713 0.51465
0.029163 0.037629 0.51039
0.028694 0.032029 0.50456
0.028564 0.024605 0.50026
0.028389 0.019351 0.49763
0.028205 0.012112 0.4956
0 0 -1
0 0 -1
0 0 -1
0 0 -1
0 0 -1
0 0 -1
0 0 -1
0 0 -1
0 0 -1
0 0 -1
0 0 -1
0 0 -1
0 0 -1
0 0 -1
0 0 -1
0 0 -1
0 0 -1
0 0 -1
0 0 -1
0 0 -1
0 0 -1
0 0 -1
0 0 -1
0 0 -1
0 0 -1
0 0 -1
0 0 -1
0 0 -1
0 0 -1
0 0 -1
0 0 -1
0 0 -1
0 0 -1
0.027697 -0.19103 0.48074
0.063703 0.54017 1.4219
0.064707 0.52674 1.4366
0.065754 0.5235 1.4602
0.06646 0.50844 1.4781
0.067268 0.50148 1.5027
0.067898 0.48242 1.5112
0.067721 0.46622 1.5136
0.067331 0.44282 1.4982
0.06616 0.42039 1.4641
0.06413 0.38873 1.4284
0.057959 0.33834 1.2943
0.047854 0.26154 1.076
0.047956 0.25115 1.0786
0.053953 0.26477 1.2034
0.062345 0.2938 1.3818
0.063514 0.27769 1.413
0.063188 0.2621 1.4082
0.062411 0.23991 1.3962
0.061721 0.22233 1.3692
0.060441 0.1995 1.3531
0.058404 0.17887 1.3092
0.033666 0.092043 0.75606
0.02507 0.063062 0.56062
0.024203 0.053197 0.53741
0.023349 0.046102 0.51908
0.022971 0.038035 0.51284
0.022711 0.032196 0.50647
0.022519 0.024753 0.50527
0.022459 0.019387 0.50072
0.022352 0.012198 0.49687
0 0 -1
0 0 -1
0 0 -1
0 0 -1
0 0 -1
0 0 -1
0 0 -1
0 0 -1
0 0 -1
0 0 -1
0 0 -1
0 0 -1
0 0 -1
0 0 -1
0 0 -1
0 0 -1
0 0 -1
0 0 -1
0 0 -1
0 0 -1
0 0 -1
0 0 -1
0 0 -1
0 0 -1
0 0 -1
0 0 -1
0 0 -1
0 0 -1
0 0 -1
0 0 -1
0 0 -1
0 0 -1
0.021791 -0.18333 0.48005
0.022104 -0.19289 0.48477
0.046609 0.54247 1.4125
0.047334 0.52693 1.4366
0.048097 0.52476 1.4639
0.048604 0.50929 1.4794
0.049466 0.50172 1.5055
0.049701 0.48327 1.513
0.049771 0.46907 1.5171
0.049427 0.44561 1.5171
0.048748 0.42477 1.488
0.047487 0.3922 1.4506
0.043993 0.34622 1.3333
0.036511 0.27178 1.1059
0.036586 0.26099 1.1085
0.041439 0.2811 1.2677
0.046402 0.29762 1.4224
0.04695 0.28311 1.4332
0.046496 0.26398 1.4164
0.046239 0.24275 1.4124
0.045366 0.22505 1.394
0.044841 0.20131 1.3664
0.043439 0.18247 1.319
0.039246 0.14768 1.2012
0.01881 0.064816 0.57624
0.01793 0.053725 0.54848
0.017307 0.046532 0.5309
0.01701 0.038526 0.51765
0.01671 0.032544 0.51306
0.016569 0.024954 0.5069
0.016434 0.019553 0.50272
0.016366 0.012273 0.50039
0.016314 0.0070461 0.4972
0 0 -1
0 0 -1
0 0 -1
0 0 -1
0 0 -1
0 0 -1
0 0 -1
0 0 -1
0 0 -1
0 0 -1
0 0 -1
0 0 -1
0 0 -1
0 0 -1
0 0 -1
0 0 -1
0 0 -1
0 0 -1
0 0 -1
0 0 -1
0 0 -1
0 0 -1
0 0 -1
0 0 -1
0 0 -1
0 0 -1
0 0 -1
0 0 -1
0 0 -1
0 0 -1
0.01599 -0.179 0.48191
0.016149 -0.18576 0.48724
0.016337 -0.19415 0.49188
0.029501 0.54447 1.4072
0.029858 0.52703 1.4307
0.030541 0.52488 1.4644
0.030766 0.50941 1.4798
0.031304 0.50237 1.5035
0.031457 0.4844 1.5149
0.031528 0.4712 1.5179
0.031448 0.44685 1.5235
0.031076 0.42598 1.4974
0.030369 0.3958 1.475
0.028255 0.35336 1.3734
0.023995 0.28568 1.1586
0.024039 0.27434 1.1614
0.027134 0.28938 1.3207
0.029845 0.30608 1.4419
0.029911 0.28643 1.4533
0.029633 0.26884 1.4364
0.029355 0.24446 1.419
0.028712 0.22618 1.4047
0.028317 0.20314 1.3747
0.027556 0.18446 1.3406
0.026887 0.16015 1.3099
0.015661 0.086405 0.75709
0.011617 0.055387 0.56197
0.011007 0.047061 0.5348
0.010829 0.038863 0.52565
0.010682 0.032789 0.51539
0.010523 0.025065 0.51146
0.010428 0.019649 0.50597
0.010345 0.012328 0.50311
0.010319 0.0071046 0.50144
0.010301 -8.1302e-05 0.49875
0 0 -1
0 0 -1
0 0 -1
0 0 -1
0 0 -1
0 0 -1
0 0 -1
0 0 -1
0 0 -1
0 0 -1
0 0 -1
0 0 -1
0 0 -1
0 0 -1
0 0 -1
0 0 -1
0 0 -1
0 0 -1
0 0 -1
0 0 -1
0 0 -1
0 0 -1
0 0 -1
0 0 -1
0 0 -1
0 0 -1
0 0 -1
0.010048 -0.16747 0.48193
0.010153 -0.1729 0.48429
0.010213 -0.18061 0.48827
0.010335 -0.18797 0.49159
0.010379 -0.1958 0.49658
0.012394 0.54013 1.4138
0.01252 0.52771 1.4343
0.012796 0.52637 1.4646
0.01289 0.51007 1.481
0.013076 0.50283 1.5037
0.013115 0.48397 1.5152
0.013137 0.47126 1.5201
0.013154 0.45068 1.5248
0.013045 0.43174 1.5097
0.012844 0.40177 1.4803
0.011952 0.36343 1.3988
0.010384 0.29951 1.2042
0.010395 0.28762 1.207
0.011496 0.29583 1.3446
0.012573 0.31044 1.4718
0.012589 0.29028 1.4759
0.01231 0.27195 1.4563
0.012198 0.24618 1.4231
0.011936 0.22747 1.4059
0.011735 0.2037 1.3811
0.011404 0.18573 1.346
0.011124 0.16222 1.3157
0.010175 0.1357 1.2034
0.0057652 0.06696 0.67539
0.0047042 0.048739 0.55407
0.004478 0.039001 0.52661
0.0044089 0.033232 0.52171
0.0043684 0.025397 0.51579
0.0043165 0.019891 0.51178
0.0042809 0.012378 0.50629
0.0042477 0.0071318 0.50333
0.0042433 -8.1583e-05 0.50168
0.0042302 -0.0052558 0.4995
0 0 -1
0 0 -1
0 0 -1
0 0 -1
0 0 -1
0 0 -1
0 0 -1
0 0 -1
0 0 -1
0 0 -1
0 0 -1
0 0 -1
0 0 -1
0 0 -1
0 0 -1
0 0 -1
0 0 -1
0 0 -1
0 0 -1
0 0 -1
0 0 -1
0 0 -1
0 0 -1
0 0 -1
0.0041872 -0.1552 0.48043
0.0042351 -0.16132 0.4857
0.0042565 -0.16835 0.4855
0.0042906 -0.17444 0.49062
0.0043293 -0.18348 0.49264
0.0043874 -0.18998 0.49908
0.0044493 -0.19984 0.50373
-0.0046971 0.53908 1.4089
-0.004818 0.52806 1.431
-0.0049618 0.52484 1.4663
-0.005037 0.50894 1.4811
-0.0051515 0.50327 1.5048
-0.0052149 0.48601 1.5156
-0.0052846 0.47264 1.5239
-0.0053418 0.45316 1.5335
-0.0053178 0.43504 1.5269
-0.0053027 0.40809 1.5131
-0.0050958 0.37538 1.4435
-0.0045161 0.31304 1.2685
-0.0045418 0.30061 1.2714
-0.0048886 0.30242 1.3765
-0.0053564 0.31575 1.4963
-0.0053921 0.29525 1.5005
-0.0052747 0.2726 1.4594
-0.0051958 0.24693 1.44
-0.0051067 0.22842 1.4183
-0.0050482 0.20545 1.3932
-0.0049283 0.186 1.358
-0.0048589 0.16258 1.3289
-0.0047365 0.14516 1.2887
-0.004067 0.10936 1.1077
-0.0022037 0.0526 0.60069
-0.0020312 0.040531 0.54897
-0.0019382 0.033439 0.52492
-0.0019162 0.025655 0.52195
-0.0019013 0.02007 0.51604
-0.0018899 0.012566 0.51182
-0.0018768 0.0071815 0.50711
-0.001862 -8.1786e-05 0.50497
-0.0018601 -0.0052975 0.5034
-0.0018486 -0.012465 0.501
0 0 -1
0 0 -1
0 0 -1
0 0 -1
0 0 -1
0 0 -1
0 0 -1
0 0 -1
0 0 -1
0 0 -1
0 0 -1
0 0 -1
0 0 -1
0 0 -1
0 0 -1
0 0 -1
0 0 -1
0 0 -1
0 0 -1
0 0 -1
0 0 -1
0 0 -1
-0.0016871 -0.14944 0.48547
-0.0016879 -0.15674 0.48721
-0.0016809 -0.16229 0.48765
-0.0016727 -0.17011 0.48948
-0.0016821 -0.17698 0.49478
-0.0016902 -0.18583 0.5012
-0.0017022 -0.19378 0.50711
-0.0017516 -0.20923 0.52616
-0.021714 0.53957 1.4064
-0.022112 0.52798 1.4276
-0.022704 0.52476 1.4667
-0.023002 0.51005 1.4803
-0.023369 0.5032 1.5071
-0.023621 0.48608 1.5193
-0.023924 0.47423 1.5316
-0.024079 0.45484 1.5419
-0.023988 0.43823 1.5396
-0.023857 0.41291 1.5293
-0.023067 0.3826 1.4723
-0.020747 0.32452 1.3211
-0.020812 0.31164 1.3242
-0.02194 0.30935 1.4038
-0.023927 0.32184 1.5249
-0.024017 0.30093 1.5292
-0.023282 0.27674 1.4815
-0.022728 0.24924 1.4529
-0.022429 0.22952 1.4191
-0.021997 0.20621 1.3963
-0.021585 0.18625 1.3589
-0.021055 0.16459 1.3367
-0.020604 0.14662 1.3058
-0.020092 0.12468 1.2728
-0.014071 0.078192 0.88718
-0.0094516 0.044083 0.59617
-0.008741 0.034865 0.55328
-0.0083687 0.026002 0.52528
-0.0082631 0.020256 0.52232
-0.0081115 0.012676 0.51604
-0.0081118 0.0072735 0.51247
-0.0080717 -8.303e-05 0.51066
-0.0080176 -0.005345 0.50735
-0.0079782 -0.012522 0.505
-0.0079369 -0.01769 0.50137
0 0 -1
0 0 -1
0 0 -1
0 0 -1
0 0 -1
0 0 -1
0 0 -1
0 0 -1
0 0 -1
0 0 -1
0 0 -1
0 0 -1
0 0 -1
0 0 -1
0 0 -1
0 0 -1
0 0 -1
0 0 -1
0 0 -1
0 0 -1
-0.0076429 -0.1451 0.48683
-0.0076639 -0.15123 0.48917
-0.0076472 -0.15773 0.4925
-0.0077122 -0.16439 0.49474
-0.0077394 -0.17285 0.49635
-0.0078436 -0.17943 0.50309
-0.0079188 -0.18922 0.50948
-0.0081844 -0.20199 0.5285
-0.010404 -0.26619 0.674
-0.038693 0.53725 1.4022
-0.039402 0.52657 1.4273
-0.04033 0.52461 1.4664
-0.040879 0.50932 1.4793
-0.041695 0.5046 1.5085
-0.041998 0.48674 1.5234
-0.04258 0.47477 1.5355
-0.042888 0.45599 1.5469
-0.042957 0.44075 1.5511
-0.042772 0.41771 1.5449
-0.041886 0.39172 1.4991
-0.038124 0.33699 1.3785
-0.038231 0.32361 1.3818
-0.039838 0.3161 1.434
-0.0431 0.3279 1.5481
-0.043244 0.3066 1.5524
-0.042337 0.28308 1.5177
-0.041053 0.25452 1.4745
-0.039953 0.23089 1.4334
-0.039127 0.20735 1.4039
-0.038322 0.1885 1.3786
-0.037579 0.16579 1.3417
-0.036575 0.14779 1.3202
-0.036047 0.12671 1.2946
-0.034408 0.109 1.2365
-0.023133 0.060926 0.82649
-0.016526 0.037754 0.59481
-0.01545 0.027022 0.55218
-0.014801 0.020743 0.53474
-0.014647 0.012827 0.52339
-0.014416 0.0073248 0.516
-0.014329 -8.4706e-05 0.51379
-0.014255 -0.00537 0.51114
-0.014111 -0.012555 0.5068
-0.013979 -0.017654 0.50124
0 0 -1
0 0 -1
0 0 -1
0 0 -1
0 0 -1
0 0 -1
0 0 -1
0 0 -1
0 0 -1
0 0 -1
0 0 -1
0 0 -1
0 0 -1
0 0 -1
0 0 -1
0 0 -1
0 0 -1
0 0 -1
0 0 -1
-0.013636 -0.13857 0.48859
-0.013683 -0.14629 0.49268
-0.013689 -0.15158 0.4952
-0.013846 -0.15977 0.50009
-0.013847 -0.16635 0.49924
-0.014021 -0.17472 0.50501
-0.014251 -0.18337 0.51376
-0.014651 -0.1971 0.5302
-0.018671 -0.2577 0.67714
-0.038155 -0.54705 1.382
-0.055533 0.53706 1.4034
-0.056648 0.52635 1.4296
-0.058151 0.52505 1.4683
-0.058891 0.51053 1.4794
-0.060027 0.50439 1.5136
-0.060506 0.48705 1.5245
-0.061228 0.47703 1.5351
-0.061748 0.45839 1.5535
-0.06209 0.44344 1.5578
-0.062213 0.4212 1.5584
-0.061221 0.39893 1.5336
-0.05674 0.34738 1.4161
-0.056892 0.33359 1.4194
-0.057791 0.32113 1.4495
-0.062948 0.33304 1.5731
-0.063149 0.31141 1.5775
-0.061991 0.28941 1.5503
-0.060115 0.25949 1.5129
-0.058231 0.23346 1.4558
-0.056604 0.20842 1.4171
-0.054977 0.18908 1.384
-0.053956 0.16669 1.3556
-0.052864 0.14913 1.3301
-0.051885 0.12811 1.3051
-0.050913 0.11147 1.2757
-0.049378 0.090934 1.2352
-0.035721 0.056378 0.88823
-0.023712 0.029256 0.59504
-0.022168 0.021378 0.5536
-0.021543 0.013216 0.53725
-0.021103 0.0074132 0.52697
-0.020807 -8.6443e-05 0.51949
-0.020652 -0.0054421 0.51579
-0.020492 -0.012667 0.51143
-0.020352 -0.017801 0.50481
-0.020183 -0.024926 0.5042
0 0 -1
0 0 -1
0 0 -1
-0.020065 -0.049365 0.50012
0 0 -1
0 0 -1
0 0 -1
0 0 -1
0 0 -1
0 0 -1
0 0 -1
0 0 -1
0 0 -1
0 0 -1
0 0 -1
0 0 -1
0 0 -1
-0.019662 -0.13398 0.49088
-0.019797 -0.14021 0.49574
-0.019941 -0.14855 0.49903
-0.020053 -0.15419 0.50354
-0.020143 -0.16277 0.50671
-0.020281 -0.16938 0.51033
-0.020709 -0.17906 0.51806
-0.02173 -0.19454 0.54481
-0.027621 -0.25842 0.69656
-0.055434 -0.53122 1.3926
-0.05896 -0.5847 1.4842
-0.072114 0.53528 1.3955
-0.074033 0.52618 1.4289
-0.075886 0.5254 1.4647
-0.07685 0.51111 1.4831
-0.078267 0.50472 1.5157
-0.079049 0.48859 1.5292
-0.080131 0.47835 1.5466
-0.0811 0.45975 1.5622
-0.081645 0.4469 1.5711
-0.081979 0.4261 1.5769
-0.081306 0.40594 1.5565
-0.075886 0.35982 1.4577
-0.075026 0.34056 1.4443
-0.076145 0.32622 1.4685
-0.0831 0.33738 1.5974
-0.083359 0.31547 1.6019
-0.082172 0.29432 1.5764
-0.080111 0.26521 1.5455
-0.077376 0.24091 1.487
-0.075146 0.21262 1.4436
-0.072743 0.19143 1.3947
-0.071157 0.16833 1.3656
-0.069635 0.1505 1.3352
-0.068472 0.12945 1.3179
-0.067167 0.11303 1.283
-0.065771 0.09247 1.2572
-0.063658 0.077166 1.2164
-0.050188 0.046862 0.95181
-0.033195 0.024838 0.63842
-0.029526 0.013884 0.56623
-0.028081 0.007628 0.53917
-0.027917 -9.0213e-05 0.53234
-0.027346 -0.0055173 0.52533
-0.027178 -0.012933 0.52193
-0.026896 -0.018143 0.5137
-0.026843 -0.025496 0.51228
-0.02637 -0.030257 0.5077
-0.026345 -0.037457 0.50721
-0.026441 -0.042762 0.50605
-0.026405 -0.04994 0.5054
-0.026218 -0.05512 0.50459
-0.026173 -0.062122 0.50316
-0.026161 -0.067314 0.5031
-0.026176 -0.074298 0.50151
-0.026133 -0.079437 0.50152
-0.026069 -0.086415 0.49923
-0.02602 -0.09176 0.49947
-0.026122 -0.098678 0.49864
-0.02608 -0.10433 0.49815
-0.025997 -0.11119 0.49617
-0.025971 -0.11617 0.49695
-0.026046 -0.12356 0.49926
-0.026057 -0.12908 0.50027
-0.026115 -0.13625 0.50047
-0.026176 -0.14251 0.50176
-0.026286 -0.14989 0.50474
-0.026565 -0.15665 0.51025
-0.027041 -0.16669 0.51721
-0.027391 -0.17601 0.52743
-0.028539 -0.19116 0.55086
-0.044139 -0.30361 0.84996
-0.074241 -0.52937 1.4318
-0.077368 -0.5684 1.4924
-0.078024 -0.59428 1.5043
-0.088939 0.53513 1.3967
-0.091231 0.52611 1.4284
-0.093601 0.52537 1.4667
-0.094974 0.51169 1.4855
-0.096868 0.50658 1.517
-0.09787 0.48935 1.5349
-0.099514 0.47971 1.5539
-0.10049 0.46356 1.5708
-0.10103 0.45069 1.5841
-0.10199 0.43042 1.5899
-0.10131 0.41061 1.5799
-0.096362 0.36936 1.5072
-0.093736 0.34591 1.463
-0.095326 0.32859 1.4959
-0.104 0.34211 1.6216
-0.10432 0.32005 1.63
-0.10273 0.29839 1.6001
-0.10071 0.27086 1.5756
-0.097802 0.2469 1.5313
-0.09494 0.2189 1.4783
-0.091352 0.19478 1.4236
-0.089264 0.17074 1.3862
-0.087136 0.15215 1.3515
-0.085342 0.13134 1.3357
-0.08363 0.11432 1.3024
-0.08212 0.093769 1.2672
-0.079509 0.078461 1.2425
-0.078071 0.059709 1.2145
-0.067034 0.040605 1.0477
-0.047575 0.018107 0.7371
-0.036936 0.0081315 0.57319
-0.035153 -9.4769e-05 0.5511
-0.034587 -0.0056399 0.53384
-0.033915 -0.013138 0.52907
-0.033539 -0.018395 0.52196
-0.033505 -0.025823 0.51875
-0.033173 -0.031014 0.51737
-0.033134 -0.038135 0.51526
-0.032992 -0.043429 0.51215
-0.032863 -0.050718 0.51091
-0.032772 -0.055658 0.50688
-0.032568 -0.062625 0.50599
-0.032672 -0.068041 0.50533
-0.032408 -0.074899 0.50433
-0.032349 -0.080447 0.50414
-0.032271 -0.086997 0.50312
-0.032286 -0.092513 0.5052
-0.032316 -0.099276 0.50108
-0.032357 -0.1045 0.50334
-0.032261 -0.11188 0.50431
-0.032346 -0.11742 0.50352
-0.032403 -0.12497 0.50431
-0.032323 -0.13044 0.50346
-0.032584 -0.13808 0.50713
-0.032778 -0.14401 0.50705
-0.033189 -0.15341 0.51521
-0.033535 -0.16113 0.52557
-0.03439 -0.1716 0.53618
-0.038193 -0.19752 0.595
-0.055975 -0.30311 0.8764
-0.09465 -0.5271 1.4808
-0.096252 -0.55638 1.5012
-0.096931 -0.57766 1.5163
-0.09677 -0.59833 1.5126
-0.10609 0.53343 1.3908
-0.10843 0.52543 1.4255
-0.11149 0.52561 1.4696
-0.11289 0.51129 1.4865
-0.11525 0.50745 1.5207
-0.11704 0.49091 1.5351
-0.11888 0.48254 1.5601
-0.12032 0.46565 1.5787
-0.12113 0.45263 1.5902
-0.12203 0.43357 1.6057
-0.12191 0.41596 1.5955
-0.1174 0.38051 1.5441
-0.11368 0.35169 1.5008
-0.11406 0.33143 1.5054
-0.12515 0.34691 1.6427
-0.12565 0.32502 1.6513
-0.12411 0.30359 1.6317
-0.1222 0.27545 1.6027
-0.11909 0.25247 1.5647
-0.11631 0.22439 1.5215
-0.11229 0.20255 1.471
-0.10857 0.17468 1.425
-0.10563 0.15518 1.3809
-0.10234 0.13174 1.3391
-0.10076 0.11611 1.3177
-0.09908 0.095342 1.3003
-0.096309 0.080126 1.2589
-0.0945 0.06075 1.2347
-0.093218 0.047158 1.214
-0.088891 0.028417 1.1661
-0.061012 0.01121 0.78736
-0.047378 -0.00010902 0.62407
-0.042918 -0.0059699 0.56222
-0.041971 -0.013571 0.54822
-0.041081 -0.018989 0.53584
-0.040641 -0.026409 0.53392
-0.04026 -0.031337 0.5246
-0.039741 -0.038722 0.52267
-0.039604 -0.043722 0.51697
-0.039435 -0.051052 0.51585
-0.039509 -0.056296 0.5153
-0.039299 -0.063535 0.51293
-0.039157 -0.068821 0.51198
-0.038957 -0.076064 0.51125
-0.038982 -0.081262 0.51123
-0.03889 -0.087975 0.51005
-0.038905 -0.093089 0.50914
-0.03902 -0.10085 0.51014
-0.038989 -0.10594 0.50952
-0.03887 -0.11376 0.51016
-0.039253 -0.11882 0.51332
-0.03931 -0.12702 0.51527
-0.039373 -0.13227 0.51557
-0.039681 -0.14101 0.51916
-0.040203 -0.14799 0.52644
-0.040752 -0.15893 0.53225
-0.04313 -0.17512 0.56842
-0.050635 -0.21343 0.66683
-0.09811 -0.42743 1.2894
-0.114 -0.51686 1.4967
-0.11549 -0.54165 1.519
-0.11583 -0.56348 1.5214
-0.1159 -0.57949 1.5205
-0.11541 -0.59979 1.524
-0.12198 0.53015 1.3906
-0.12553 0.52521 1.42
-0.12932 0.52634 1.4684
-0.13108 0.51329 1.4866
-0.13425 0.50811 1.526
-0.13597 0.49238 1.5429
-0.1381 0.48542 1.5711
-0.13984 0.46744 1.5844
-0.14101 0.45583 1.601
-0.14261 0.43743 1.6126
-0.14196 0.4191 1.6109
-0.13858 0.38644 1.5787
-0.13271 0.35486 1.5059
-0.13315 0.33442 1.5106
-0.14679 0.35117 1.6638
-0.14746 0.32936 1.669
-0.14576 0.3084 1.6529
-0.14399 0.28074 1.6298
-0.1412 0.25829 1.5975
-0.13779 0.22949 1.56
-0.13484 0.20875 1.5222
-0.13023 0.18162 1.4723
-0.12599 0.16054 1.4275
-0.12246 0.13556 1.3816
-0.11858 0.11788 1.3391
-0.11614 0.097267 1.3178
-0.11427 0.081935 1.2908
-0.11157 0.061821 1.2587
-0.10965 0.047932 1.234
-0.10758 0.029809 1.223
-0.10401 0.016606 1.1799
-0.091271 -0.00018501 1.0299
-0.060026 -0.0071137 0.67911
-0.052661 -0.014856 0.59345
-0.049822 -0.019813 0.56301
-0.048371 -0.027492 0.5531
-0.047762 -0.032282 0.53763
-0.047492 -0.039831 0.53576
-0.046701 -0.044658 0.52975
-0.046641 -0.051814 0.52648
-0.046473 -0.057188 0.52425
-0.046345 -0.064438 0.52125
-0.046204 -0.069873 0.52057
-0.045976 -0.076966 0.51941
-0.045978 -0.082308 0.51827
-0.04587 -0.089538 0.51707
-0.045792 -0.095179 0.51773
-0.045871 -0.10276 0.51725
-0.045939 -0.10805 0.51825
-0.046228 -0.11643 0.51999
-0.046254 -0.12255 0.52477
-0.04722 -0.13087 0.52925
-0.047164 -0.13796 0.53203
-0.047787 -0.14694 0.54225
-0.050019 -0.16019 0.5662
-0.055581 -0.18713 0.6291
-0.09548 -0.33236 1.0855
-0.1281 -0.46534 1.4521
-0.13477 -0.50458 1.5172
-0.13514 -0.52918 1.5253
-0.13507 -0.54641 1.5334
-0.13525 -0.56747 1.5284
-0.13498 -0.58292 1.5327
-0.13451 -0.6037 1.5263
-0.13895 0.53028 1.3853
-0.14231 0.52481 1.4186
-0.14694 0.52637 1.4656
-0.14902 0.51321 1.4875
-0.15261 0.51079 1.525
-0.15474 0.49314 1.5466
-0.15771 0.48755 1.5755
-0.15971 0.47008 1.5928
-0.16136 0.45828 1.6082
-0.16329 0.44134 1.6264
-0.16293 0.42219 1.6234
-0.16082 0.39443 1.6039
-0.15083 0.35448 1.5079
-0.15133 0.33405 1.5126
-0.16904 0.35469 1.6781
-0.16969 0.33216 1.6852
-0.16781 0.31231 1.672
-0.16597 0.28501 1.6551
-0.1633 0.26343 1.6301
-0.16034 0.23566 1.5949
-0.15672 0.21347 1.5605
-0.15382 0.18716 1.5303
-0.14955 0.16682 1.4845
-0.14531 0.14249 1.4456
-0.14048 0.12262 1.4026
-0.13698 0.10047 1.3621
-0.13199 0.08358 1.3173
-0.12987 0.06383 1.2904
-0.12697 0.048752 1.2658
-0.12658 0.030636 1.254
-0.1232 0.017243 1.2255
-0.12221 -0.00022506 1.2077
-0.11678 -0.012258 1.1665
-0.10138 -0.02499 1.0017
-0.067656 -0.02366 0.6727
-0.060108 -0.029585 0.59767
-0.057164 -0.033697 0.56247
-0.055148 -0.040716 0.55059
-0.054506 -0.045942 0.54006
-0.054437 -0.053652 0.53936
-0.054379 -0.059053 0.5402
-0.054233 -0.066687 0.53932
-0.053975 -0.071797 0.53424
-0.053798 -0.079242 0.53156
-0.053783 -0.084644 0.53074
-0.053855 -0.09208 0.53166
-0.054078 -0.098354 0.53173
-0.054147 -0.10588 0.53219
-0.054055 -0.11228 0.53338
-0.053962 -0.12016 0.53923
-0.055618 -0.12881 0.55609
-0.058046 -0.14336 0.57542
-0.060092 -0.15312 0.59737
-0.067525 -0.18225 0.67178
-0.1079 -0.30413 1.0784
-0.14267 -0.42177 1.4243
-0.15352 -0.46964 1.5221
-0.1542 -0.49388 1.5338
-0.15484 -0.51124 1.5388
-0.15459 -0.5333 1.5408
-0.15476 -0.54898 1.5401
-0.15416 -0.56851 1.5366
-0.15425 -0.58557 1.5357
-0.15375 -0.60546 1.5283
-0.15515 0.5291 1.3804
-0.15897 0.52419 1.4171
-0.16462 0.52593 1.4625
-0.16691 0.51259 1.487
-0.1716 0.5102 1.5258
-0.17353 0.49327 1.5514
-0.17744 0.48921 1.5808
-0.17963 0.47164 1.6019
-0.18206 0.46231 1.6186
-0.18449 0.44349 1.641
-0.18381 0.42761 1.6454
-0.18301 0.3999 1.6269
-0.16894 0.354 1.5061
-0.1695 0.33361 1.5107
-0.19028 0.3564 1.6902
-0.19084 0.33329 1.6953
-0.19028 0.31491 1.6863
-0.18825 0.28837 1.6724
-0.18605 0.26769 1.6529
-0.18315 0.24034 1.6305
-0.1797 0.21925 1.5995
-0.1775 0.194 1.5748
-0.17353 0.17319 1.5415
-0.17054 0.14882 1.5148
-0.16513 0.12918 1.4753
-0.16269 0.10626 1.4409
-0.15723 0.08815 1.3865
-0.1527 0.066627 1.3595
-0.14846 0.051012 1.3179
-0.14622 0.031877 1.306
-0.14198 0.017655 1.2564
-0.14035 -0.00023878 1.248
-0.1377 -0.012834 1.2198
-0.13626 -0.030158 1.2182
-0.13364 -0.041698 1.186
-0.12661 -0.055163 1.1086
-0.09872 -0.052253 0.87271
-0.082688 -0.054187 0.73755
-0.071929 -0.053967 0.63748
-0.06891 -0.060658 0.61446
-0.068558 -0.066544 0.60882
-0.066589 -0.073086 0.59302
-0.064597 -0.076738 0.57121
-0.063999 -0.08465 0.57009
-0.064369 -0.090538 0.57263
-0.064553 -0.098492 0.57185
-0.064559 -0.10427 0.57083
-0.065525 -0.11425 0.57837
-0.068159 -0.12635 0.60556
-0.072527 -0.14308 0.64779
-0.091425 -0.18923 0.81489
-0.13044 -0.28612 1.1579
-0.15081 -0.34462 1.3376
-0.1689 -0.40816 1.4989
-0.17362 -0.43462 1.5385
-0.17412 -0.4584 1.5468
-0.17453 -0.47665 1.5476
-0.17464 -0.4979 1.5501
-0.17448 -0.5131 1.552
-0.17422 -0.53438 1.5459
-0.17394 -0.55001 1.5437
-0.17349 -0.57193 1.5419
-0.17299 -0.58666 1.5396
-0.17254 -0.6067 1.5347
-0.17115 0.52804 1.3777
-0.17567 0.52131 1.4154
-0.18212 0.52524 1.4621
-0.18499 0.51114 1.4871
-0.18991 0.50952 1.53
-0.19239 0.49619 1.5503
-0.19787 0.49057 1.5837
-0.19898 0.4749 1.6009
-0.20328 0.46446 1.6329
-0.20499 0.44449 1.647
-0.20554 0.42898 1.6549
-0.20403 0.4042 1.65
-0.18686 0.35245 1.4979
-0.18747 0.33214 1.5025
-0.21138 0.35865 1.6996
-0.21221 0.33534 1.7049
-0.21149 0.31598 1.6958
-0.21 0.29076 1.6866
-0.20823 0.27068 1.6705
-0.20622 0.24404 1.6536
-0.20315 0.2235 1.6306
-0.20162 0.19824 1.6142
-0.19866 0.17947 1.5976
-0.19698 0.15516 1.5744
-0.19267 0.13644 1.5464
-0.19036 0.11259 1.5226
-0.18535 0.094186 1.4893
-0.18184 0.071745 1.4632
-0.1784 0.055151 1.4341
-0.17518 0.034191 1.3974
-0.16969 0.019172 1.3619
-0.16777 -0.0002658 1.3492
-0.16517 -0.013825 1.3209
-0.16358 -0.032553 1.3177
-0.16353 -0.046129 1.3151
-0.16382 -0.06536 1.3143
-0.16373 -0.078992 1.3136
-0.16327 -0.096811 1.3066
-0.15967 -0.10736 1.2681
-0.15726 -0.12453 1.2665
-0.1571 -0.13744 1.2651
-0.13924 -0.13722 1.1148
-0.12313 -0.1322 0.98466
-0.12289 -0.14605 0.98273
-0.12375 -0.15779 0.99445
-0.12961 -0.17954 1.04
-0.13725 -0.20084 1.0978
-0.14639 -0.23124 1.1727
-0.16826 -0.28067 1.3513
-0.18274 -0.32582 1.4655
-0.19169 -0.35769 1.5407
-0.19305 -0.38271 1.5474
-0.19435 -0.40165 1.5623
-0.19456 -0.42486 1.56
-0.19469 -0.44109 1.5602
-0.19481 -0.46298 1.5626
-0.19445 -0.47898 1.56
-0.1943 -0.50054 1.5567
-0.19387 -0.51627 1.5554
-0.19359 -0.53678 1.5521
-0.19315 -0.5519 1.5514
-0.19237 -0.57368 1.5465
-0.19202 -0.58778 1.5413
-0.19151 -0.60587 1.5336
-0.1871 0.52653 1.3764
-0.19179 0.51914 1.4054
-0.19893 0.52349 1.4605
-0.20281 0.5104 1.4892
-0.20817 0.50915 1.5279
-0.21114 0.49546 1.5501
-0.2168 0.48994 1.5876
-0.21875 0.47436 1.609
-0.22372 0.4652 1.6349
-0.22598 0.44729 1.6537
-0.2269 0.4319 1.6603
-0.22696 0.40705 1.6607
-0.20223 0.34926 1.4852
-0.20288 0.32912 1.4897
-0.23249 0.35967 1.7055
-0.23337 0.33638 1.7111
-0.23292 0.31783 1.7056
-0.23217 0.29205 1.6961
-0.23033 0.27297 1.6866
-0.2286 0.24734 1.6715
-0.22623 0.2269 1.6534
-0.22531 0.20241 1.6438
-0.22319 0.18392 1.6359
-0.22165 0.15924 1.6219
-0.21951 0.14084 1.6032
-0.21743 0.11701 1.5906
-0.2143 0.099231 1.5733
-0.21272 0.076376 1.5576
-0.20895 0.05911 1.5305
-0.20672 0.036839 1.5136
-0.20464 0.020967 1.4988
-0.20258 -0.0003043 1.4904
-0.20018 -0.015486 1.4711
-0.20005 -0.03636 1.4684
-0.20009 -0.051477 1.4633
-0.20005 -0.072344 1.4624
-0.19995 -0.087431 1.4591
-0.19838 -0.10791 1.4577
-0.19823 -0.12289 1.4565
-0.2039 -0.14722 1.4899
-0.2074 -0.1652 1.5111
-0.20855 -0.18769 1.5237
-0.21061 -0.20626 1.5411
-0.21232 -0.22975 1.5461
-0.2132 -0.24734 1.5641
-0.21435 -0.27076 1.5634
-0.21471 -0.28795 1.5718
-0.21573 -0.31114 1.5706
-0.21632 -0.32862 1.576
-0.21634 -0.35107 1.577
-0.21598 -0.36697 1.58
-0.21572 -0.38959 1.58
-0.21596 -0.40644 1.5761
-0.21536 -0.42844 1.5712
-0.21504 -0.44401 1.5728
-0.21443 -0.46518 1.5685
-0.21435 -0.48117 1.5652
-0.21404 -0.50324 1.5642
-0.21338 -0.51818 1.5595
-0.21256 -0.53856 1.5566
-0.2121 -0.55391 1.554
-0.21149 -0.5744 1.5485
-0.2111 -0.58856 1.5435
-0.21055 -0.60893 1.5384
-0.20272 0.52205 1.3642
-0.20785 0.51744 1.3989
-0.21607 0.5225 1.4583
-0.2204 0.51038 1.4852
-0.22648 0.50834 1.5282
-0.22967 0.49467 1.5513
-0.23606 0.49202 1.5904
-0.23892 0.47575 1.6103
-0.24408 0.46596 1.6431
-0.24638 0.44953 1.661
-0.24857 0.43475 1.6673
-0.24905 0.41192 1.6694
-0.21772 0.34488 1.4663
-0.21842 0.32499 1.4708
-0.25426 0.36096 1.7084
-0.255 0.33749 1.7141
-0.25468 0.31874 1.7106
-0.25391 0.29373 1.7069
-0.25262 0.2745 1.6942
-0.25084 0.24883 1.6874
-0.2489 0.23008 1.676
-0.24792 0.20474 1.6656
-0.24697 0.18673 1.6582
-0.24548 0.16212 1.6485
-0.24504 0.14431 1.6413
-0.24302 0.12037 1.6319
-0.24121 0.10246 1.6164
-0.23976 0.078591 1.6087
-0.23601 0.061352 1.5908
-0.23511 0.038587 1.5793
-0.23405 0.022111 1.5691
-0.23335 -0.00033426 1.5671
-0.23162 -0.016412 1.5567
-0.23117 -0.038584 1.5517
-0.23111 -0.054678 1.5523
-0.23122 -0.076758 1.5503
-0.2311 -0.092763 1.5492
-0.2287 -0.11379 1.5304
-0.22852 -0.12958 1.5292
-0.2312 -0.15326 1.5462
-0.23488 -0.17247 1.578
-0.2362 -0.19575 1.5831
-0.23795 -0.21424 1.5943
-0.23871 -0.23751 1.6014
-0.23895 -0.2538 1.6027
-0.23886 -0.27719 1.6016
-0.23854 -0.29399 1.6015
-0.23827 -0.31631 1.5974
-0.23779 -0.33242 1.5942
-0.2371 -0.35414 1.5924
-0.23678 -0.37004 1.5913
-0.23602 -0.39167 1.5858
-0.23544 -0.40761 1.5824
-0.23534 -0.42883 1.5809
-0.23486 -0.44463 1.5773
-0.23467 -0.46628 1.5765
-0.234 -0.48281 1.5735
-0.23329 -0.50336 1.5677
-0.23287 -0.51834 1.5633
-0.23187 -0.53916 1.5582
-0.23147 -0.555 1.5541
-0.23045 -0.57475 1.5494
-0.22998 -0.5889 1.5441
-0.22873 -0.61021 1.5339
-0.21805 0.51972 1.362
-0.22282 0.51297 1.3894
-0.2331 0.52069 1.4547
-0.23794 0.50951 1.4827
-0.24452 0.50792 1.5232
-0.24839 0.49385 1.5487
-0.25535 0.49177 1.5917
-0.25821 0.47626 1.6094
-0.26426 0.46671 1.6505
-0.26777 0.45018 1.6603
-0.26897 0.43569 1.6763
-0.26991 0.41319 1.6774
-0.23501 0.34425 1.4638
-0.23576 0.3244 1.4682
-0.27552 0.36113 1.712
-0.27639 0.33788 1.717
-0.27568 0.31978 1.7143
-0.27559 0.29454 1.7127
-0.27436 0.27604 1.7033
-0.27321 0.25051 1.6958
-0.27114 0.23129 1.6868
-0.27099 0.20686 1.6797
-0.27047 0.18925 1.6773
-0.26904 0.16488 1.6712
-0.26793 0.14694 1.6662
-0.26765 0.1221 1.6596
-0.26571 0.10423 1.6543
-0.26468 0.080696 1.6395
-0.26233 0.06306 1.6323
-0.26113 0.039585 1.6236
-0.26023 0.022715 1.6157
-0.25945 -0.00035811 1.613
-0.25879 -0.017017 1.6048
-0.25844 -0.039852 1.6007
-0.25826 -0.056427 1.6002
-0.25783 -0.079301 1.6009
-0.25711 -0.095834 1.6
-0.25521 -0.11746 1.5844
-0.25501 -0.13375 1.5831
-0.25469 -0.1566 1.5826
-0.26006 -0.17631 1.6103
-0.2601 -0.19973 1.6099
-0.26112 -0.21678 1.6188
-0.26099 -0.24009 1.6208
-0.26074 -0.2565 1.6183
-0.26045 -0.27919 1.6141
-0.26007 -0.29597 1.6113
-0.2594 -0.31829 1.6076
-0.25889 -0.33443 1.6045
-0.25731 -0.35598 1.599
-0.25725 -0.3712 1.5945
-0.25631 -0.39282 1.5904
-0.25569 -0.4086 1.5874
-0.2548 -0.43024 1.5849
-0.25476 -0.44654 1.5813
-0.25428 -0.46756 1.5754
-0.25377 -0.48267 1.5743
-0.25285 -0.5038 1.5699
-0.25212 -0.51917 1.5652
-0.25104 -0.54033 1.5585
-0.25043 -0.55517 1.5581
-0.24954 -0.57494 1.5511
-0.24872 -0.58958 1.5461
-0.24752 -0.60947 1.5415
-0.23334 0.5166 1.3516
-0.23831 0.50941 1.3787
-0.24911 0.5184 1.448
-0.25411 0.50777 1.4734
-0.26245 0.50848 1.5211
-0.2666 0.49294 1.5411
-0.27351 0.49025 1.5889
-0.27828 0.47539 1.6109
-0.28437 0.46809 1.6476
-0.28741 0.44995 1.669
-0.29062 0.4384 1.6855
-0.29163 0.41576 1.691
-0.25922 0.35417 1.5012
-0.26004 0.33374 1.5057
-0.29722 0.36215 1.7166
-0.29811 0.33872 1.7237
-0.29717 0.32045 1.7193
-0.29654 0.29544 1.716
-0.29595 0.27676 1.711
-0.29482 0.25119 1.7029
-0.29361 0.23289 1.6949
-0.29261 0.20815 1.6896
-0.29286 0.19004 1.6897
-0.29186 0.16596 1.6901
-0.29123 0.14819 1.6835
-0.29126 0.12379 1.677
-0.28898 0.10568 1.6729
-0.28811 0.081802 1.667
-0.28721 0.064259 1.6601
-0.28687 0.040385 1.6575
-0.28492 0.023143 1.6497
-0.28484 -0.00038113 1.6482
-0.28395 -0.017412 1.6412
-0.28381 -0.040825 1.6388
-0.28367 -0.057786 1.6361
-0.28323 -0.081193 1.6358
-0.28283 -0.097686 1.634
-0.27731 -0.11903 1.6
-0.27801 -0.13586 1.605
-0.27933 -0.15944 1.6088
-0.28268 -0.17824 1.632
-0.28322 -0.2016 1.6317
-0.28287 -0.21824 1.6331
-0.28302 -0.24165 1.6302
-0.28218 -0.25817 1.6285
-0.28153 -0.28085 1.6248
-0.28076 -0.29675 1.6185
-0.27939 -0.31882 1.6115
-0.27848 -0.3349 1.6083
-0.27754 -0.35683 1.6037
-0.27691 -0.37224 1.6014
-0.27603 -0.39392 1.5946
-0.27574 -0.41026 1.5913
-0.27493 -0.43163 1.5858
-0.27432 -0.44716 1.5848
-0.27355 -0.46827 1.5789
-0.27279 -0.48335 1.5755
-0.27197 -0.50486 1.5693
-0.27115 -0.52033 1.5682
-0.26998 -0.54091 1.5628
-0.26979 -0.5554 1.5584
-0.26858 -0.57482 1.5544
-0.26765 -0.58897 1.5484
-0.26583 -0.60826 1.5411
-0.24785 0.51311 1.3404
-0.25364 0.50469 1.3747
-0.2659 0.5152 1.4385
-0.27013 0.50433 1.4659
-0.2796 0.50749 1.5177
-0.28447 0.49167 1.5349
-0.2922 0.48841 1.5822
-0.29716 0.47442 1.609
-0.3042 0.46794 1.6455
-0.30729 0.44947 1.6677
-0.31189 0.43958 1.6844
-0.31297 0.41686 1.69
-0.28577 0.36377 1.539
-0.28667 0.34278 1.5436
-0.3188 0.36351 1.7202
-0.32033 0.34013 1.7295
-0.31952 0.32095 1.7246
-0.3184 0.29636 1.7203
-0.31715 0.27785 1.7153
-0.3166 0.25258 1.7096
-0.31523 0.23341 1.7026
-0.31459 0.20878 1.6961
-0.31485 0.19084 1.6944
-0.31368 0.16638 1.6924
-0.31236 0.14835 1.6887
-0.31142 0.12435 1.682
-0.3112 0.10632 1.6827
-0.31091 0.082335 1.6797
-0.30998 0.064648 1.6733
-0.30972 0.040781 1.6734
-0.30923 0.023432 1.6699
-0.30831 -0.00040272 1.6648
-0.30786 -0.01762 1.6625
-0.30731 -0.041349 1.6621
-0.30695 -0.058418 1.6572
-0.30668 -0.082018 1.6538
-0.30453 -0.09831 1.6487
-0.30168 -0.12067 1.63
-0.3017 -0.13779 1.6267
-0.3021 -0.16117 1.6303
-0.30398 -0.17933 1.6421
-0.30379 -0.20279 1.6395
-0.3038 -0.21952 1.6373
-0.30322 -0.24248 1.6322
-0.30248 -0.25873 1.6297
-0.30179 -0.28113 1.626
-0.30052 -0.29769 1.6204
-0.2993 -0.31914 1.6155
-0.29869 -0.33482 1.6104
-0.29766 -0.35687 1.6057
-0.29719 -0.37302 1.6022
-0.29607 -0.39476 1.5965
-0.29562 -0.41022 1.5923
-0.2944 -0.43159 1.5868
-0.29389 -0.44755 1.5843
-0.29316 -0.46856 1.5799
-0.2924 -0.48363 1.5773
-0.29141 -0.50508 1.5743
-0.29053 -0.52001 1.5696
-0.28968 -0.54067 1.5629
-0.28903 -0.55542 1.5594
-0.28788 -0.57495 1.5526
-0.28658 -0.58901 1.5465
-0.28501 -0.60833 1.5359
-0.2612 0.51022 1.3257
-0.26806 0.50273 1.3574
-0.2804 0.5114 1.431
-0.28681 0.5005 1.4597
-0.29651 0.50264 1.5077
-0.30239 0.4891 1.5292
-0.31024 0.48738 1.5749
-0.31587 0.4722 1.6045
-0.32355 0.46722 1.6414
-0.32715 0.449 1.6642
-0.3317 0.43939 1.689
-0.33283 0.41668 1.6945
-0.31082 0.37203 1.5787
-0.31179 0.35056 1.5834
-0.33996 0.36363 1.7256
-0.34234 0.34029 1.7314
-0.34154 0.32298 1.7293
-0.3405 0.29705 1.7262
-0.3393 0.27859 1.7194
-0.33897 0.25332 1.7173
-0.33703 0.23468 1.7082
-0.33583 0.20937 1.7031
-0.33529 0.19131 1.6988
-0.33517 0.1668 1.6935
-0.33407 0.14866 1.6923
-0.33356 0.12432 1.6895
-0.3334 0.10675 1.688
-0.33236 0.082486 1.6851
-0.33194 0.064966 1.6846
-0.33151 0.040968 1.6803
-0.33088 0.023569 1.6766
-0.33045 -0.00042121 1.67
-0.32929 -0.017661 1.6659
-0.32884 -0.041464 1.6649
-0.32866 -0.058621 1.6646
-0.32801 -0.082238 1.6605
-0.3258 -0.098941 1.6492
-0.3234 -0.12142 1.6428
-0.32298 -0.13826 1.6361
-0.32343 -0.16214 1.6402
-0.32503 -0.17971 1.6459
-0.32452 -0.20319 1.6433
-0.32412 -0.21996 1.6398
-0.32298 -0.24279 1.6366
-0.32252 -0.25907 1.6337
-0.32158 -0.28165 1.6286
-0.32028 -0.29758 1.6226
-0.31943 -0.31987 1.6172
-0.3182 -0.33558 1.6127
-0.31724 -0.35707 1.6076
-0.31655 -0.37311 1.6037
-0.31635 -0.39506 1.5986
-0.3157 -0.41118 1.5959
-0.31451 -0.4328 1.5904
-0.3138 -0.44853 1.5884
-0.31229 -0.46923 1.5851
-0.31181 -0.48449 1.5793
-0.31058 -0.50514 1.573
-0.30973 -0.51994 1.5683
-0.30871 -0.5408 1.5622
-0.30807 -0.5553 1.5575
-0.30642 -0.5751 1.5505
-0.30507 -0.58923 1.5444
-0.30327 -0.60926 1.5363
-0.27501 0.50362 1.3214
-0.28167 0.49799 1.3493
-0.29584 0.50846 1.4189
-0.30232 0.49814 1.4503
-0.3123 0.49932 1.4999
-0.3182 0.48777 1.5222
-0.32855 0.48617 1.5715
-0.33323 0.47066 1.5939
-0.34265 0.46646 1.6379
-0.34684 0.44748 1.6606
-0.3537 0.43877 1.6916
-0.35491 0.41608 1.6971
-0.33758 0.38154 1.6153
-0.33862 0.35951 1.6201
-0.36171 0.36414 1.7321
-0.3631 0.34105 1.7389
-0.36319 0.32372 1.7348
-0.36258 0.29829 1.7306
-0.36139 0.27916 1.7262
-0.3605 0.25404 1.7211
-0.35944 0.23532 1.7131
-0.35773 0.21003 1.711
-0.3564 0.19178 1.704
-0.35656 0.16735 1.6998
-0.35549 0.1492 1.6965
-0.35562 0.1248 1.6963
-0.35403 0.10714 1.6926
-0.35357 0.08277 1.6905
-0.35336 0.065015 1.6881
-0.3527 0.040995 1.6837
-0.35165 0.023582 1.6792
-0.35157 -0.0004423 1.6738
-0.3504 -0.017748 1.6732
-0.34977 -0.041639 1.6716
-0.34913 -0.05886 1.6699
-0.34833 -0.082537 1.6654
-0.34761 -0.099153 1.6588
-0.3446 -0.12218 1.6397
-0.34434 -0.13904 1.6384
-0.34448 -0.16246 1.6438
-0.34515 -0.18002 1.6509
-0.34524 -0.20323 1.6483
-0.34416 -0.22024 1.6434
-0.34351 -0.24314 1.6403
-0.34238 -0.25976 1.6379
-0.34153 -0.28154 1.6302
-0.34046 -0.29755 1.6261
-0.33923 -0.31998 1.6182
-0.33841 -0.33599 1.615
-0.33739 -0.35764 1.6105
-0.33663 -0.37336 1.6071
-0.33558 -0.39512 1.6028
-0.33478 -0.41082 1.5991
-0.33373 -0.4326 1.5937
-0.33287 -0.44798 1.5896
-0.33163 -0.4696 1.5839
-0.33096 -0.48471 1.5797
-0.32959 -0.50539 1.572
-0.32861 -0.52036 1.5673
-0.32722 -0.54051 1.5602
-0.32652 -0.55501 1.5558
-0.32461 -0.5748 1.5494
-0.32339 -0.58898 1.5438
-0.322 -0.60579 1.532
-0.28866 0.50254 1.3064
-0.29498 0.49304 1.3381
-0.31132 0.50317 1.4021
-0.31682 0.495 1.4357
-0.32755 0.4949 1.4943
-0.3348 0.48151 1.5175
-0.3446 0.48248 1.5678
-0.35083 0.46955 1.5883
-0.36038 0.46535 1.6297
-0.36602 0.44684 1.6542
-0.37354 0.43801 1.6838
-0.3748 0.41535 1.6893
-0.36293 0.387 1.6401
-0.36405 0.36465 1.6449
-0.38316 0.36511 1.7329
-0.38496 0.34191 1.74
-0.38476 0.32345 1.7382
-0.38422 0.29896 1.7347
-0.38319 0.28012 1.7302
-0.38225 0.25448 1.7268
-0.38113 0.23596 1.7193
-0.3795 0.21074 1.7167
-0.37842 0.19208 1.7107
-0.37701 0.1674 1.708
-0.37723 0.14966 1.7029
-0.37627 0.12507 1.7016
-0.37644 0.10741 1.7002
-0.37527 0.082844 1.6951
-0.37518 0.065345 1.6918
-0.37387 0.041179 1.688
-0.37324 0.023658 1.6878
-0.3728 -0.00046425 1.6823
-0.37151 -0.017834 1.6781
-0.37128 -0.041776 1.6754
-0.37088 -0.059042 1.67
-0.3693 -0.082673 1.6659
-0.36733 -0.099499 1.6604
-0.3645 -0.12219 1.6456
-0.36423 -0.13914 1.6441
-0.36467 -0.16272 1.6487
-0.36552 -0.18015 1.6502
-0.36496 -0.20344 1.6476
-0.36462 -0.22021 1.6454
-0.36352 -0.24327 1.6386
-0.36208 -0.25954 1.6343
-0.361 -0.28203 1.6307
-0.36032 -0.29841 1.6274
-0.35917 -0.32056 1.6216
-0.35793 -0.33635 1.6179
-0.35693 -0.35792 1.6126
-0.35616 -0.37417 1.6067
-0.35506 -0.39563 1.6017
-0.35469 -0.41166 1.5984
-0.35348 -0.43276 1.5939
-0.35258 -0.44815 1.5905
-0.35063 -0.46898 1.5842
-0.34966 -0.48383 1.5777
-0.34815 -0.50447 1.5706
-0.34712 -0.5193 1.5659
-0.34561 -0.53952 1.5573
-0.34462 -0.554 1.5545
-0.34283 -0.57363 1.5463
-0.34135 -0.58769 1.5409
-0.33934 -0.607 1.5333
-0.30166 0.49839 1.2998
-0.30819 0.48666 1.3223
-0.32373 0.49784 1.3928
-0.332 0.48973 1.4261
-0.34231 0.49189 1.4712
-0.34991 0.47984 1.5025
-0.3605 0.47938 1.5513
-0.36906 0.46472 1.578
-0.37801 0.46109 1.6253
-0.38439 0.44509 1.6447
-0.39265 0.4369 1.6795
-0.39397 0.41429 1.6849
-0.38778 0.3907 1.6606
-0.38897 0.36813 1.6655
-0.40411 0.36491 1.7332
-0.40594 0.34269 1.7408
-0.40614 0.32431 1.741
-0.40573 0.29945 1.7403
-0.40476 0.28071 1.7331
-0.40406 0.25512 1.7323
-0.40315 0.23633 1.7248
-0.40143 0.2112 1.7186
-0.39966 0.1927 1.7142
-0.3996 0.16792 1.711
-0.39834 0.14996 1.707
-0.39826 0.12547 1.7029
-0.39796 0.10768 1.7027
-0.39643 0.083181 1.6975
-0.39501 0.065486 1.6969
-0.39486 0.041198 1.6922
-0.39448 0.023651 1.6878
-0.39328 -0.00048619 1.6864
-0.39258 -0.017914 1.6794
-0.39248 -0.041869 1.6774
-0.39065 -0.059067 1.6736
-0.39014 -0.082731 1.6685
-0.38824 -0.099648 1.6597
-0.38408 -0.12235 1.6427
-0.3838 -0.13932 1.6414
-0.38484 -0.16295 1.648
-0.38562 -0.1804 1.6496
-0.38503 -0.20337 1.6477
-0.38362 -0.22016 1.6456
-0.38286 -0.24302 1.6407
-0.3823 -0.25963 1.6377
-0.38079 -0.2821 1.63
-0.38015 -0.29832 1.627
-0.37908 -0.32066 1.6224
-0.37811 -0.33681 1.6167
-0.37651 -0.35832 1.6122
-0.3759 -0.37425 1.6088
-0.37427 -0.39558 1.6021
-0.37366 -0.41107 1.5984
-0.37193 -0.43251 1.5911
-0.37144 -0.44795 1.587
-0.36953 -0.46904 1.5812
-0.36837 -0.48401 1.5765
-0.36674 -0.50398 1.5699
-0.3655 -0.51869 1.5635
-0.36384 -0.53875 1.557
-0.3627 -0.5526 1.5522
-0.3605 -0.57208 1.5427
-0.35874 -0.58552 1.5369
-0.35646 -0.6026 1.5291
-0.31495 0.49323 1.2893
-0.32009 0.48259 1.3059
-0.33645 0.49326 1.3775
-0.34486 0.48701 1.4109
-0.35672 0.48689 1.4552
-0.36525 0.4745 1.4892
-0.37739 0.47628 1.543
-0.38427 0.4607 1.5722
-0.39548 0.45861 1.6166
-0.4016 0.44187 1.6371
-0.4109 0.43567 1.6752
-0.41227 0.41312 1.6826
-0.41018 0.39355 1.6688
-0.41143 0.37081 1.6737
-0.42466 0.3657 1.7313
-0.42673 0.34203 1.7409
-0.42758 0.32455 1.7458
-0.42707 0.29936 1.7403
-0.42634 0.28096 1.7384
-0.42587 0.25575 1.7324
-0.42369 0.23646 1.7279
-0.42357 0.21145 1.7238
-0.4219 0.19317 1.7219
-0.42068 0.16831 1.7187
-0.42028 0.15014 1.7089
-0.41994 0.12567 1.7089
-0.41865 0.10776 1.7031
-0.41784 0.083285 1.7009
-0.41729 0.065639 1.6984
-0.41664 0.041156 1.6939
-0.41484 0.023654 1.6898
-0.41482 -0.00050921 1.6886
-0.41371 -0.017935 1.6878
-0.41335 -0.04196 1.6846
-0.41221 -0.059143 1.6756
-0.40996 -0.082806 1.6695
-0.40873 -0.099552 1.663
-0.4058 -0.1226 1.6492
-0.40487 -0.13959 1.6479
-0.40562 -0.16305 1.6468
-0.40543 -0.18017 1.6523
-0.40485 -0.20365 1.6498
-0.40436 -0.22046 1.6482
-0.40286 -0.24313 1.6413
-0.40191 -0.25958 1.6349
-0.4004 -0.2822 1.6303
-0.3996 -0.29829 1.627
-0.39865 -0.32043 1.6212
-0.39785 -0.3366 1.6178
-0.39624 -0.35815 1.6126
-0.39477 -0.37385 1.6091
-0.39356 -0.39556 1.6033
-0.39248 -0.41122 1.5996
-0.39096 -0.43204 1.5901
-0.38991 -0.44742 1.5861
-0.3881 -0.46834 1.5786
-0.38692 -0.483 1.5752
-0.3851 -0.50361 1.5681
-0.3838 -0.51747 1.5606
-0.38233 -0.53743 1.5542
-0.38102 -0.55138 1.5494
-0.37794 -0.57054 1.5385
-0.37653 -0.58303 1.5322
-0.37322 -0.60123 1.5166
-0.32955 0.4884 1.2768
-0.3324 0.47655 1.2918
-0.35015 0.4878 1.3628
-0.36024 0.47984 1.392
-0.37229 0.48173 1.444
-0.37954 0.46879 1.4829
-0.39237 0.47171 1.5281
-0.40088 0.45698 1.5521
-0.41236 0.45409 1.5988
-0.41789 0.4372 1.6313
-0.42881 0.43311 1.6705
-0.43136 0.41197 1.678
-0.43225 0.39552 1.6808
-0.43356 0.37266 1.6866
-0.44426 0.36482 1.7258
-0.44734 0.34159 1.739
-0.44886 0.32451 1.7421
-0.44847 0.29959 1.745
-0.44758 0.28037 1.7371
-0.44654 0.25565 1.7371
-0.4458 0.23771 1.7304
-0.44448 0.21197 1.7272
-0.44368 0.1933 1.7209
-0.44238 0.16838 1.7195
-0.4416 0.15077 1.7155
-0.44123 0.12598 1.7101
-0.43997 0.10793 1.7093
-0.43873 0.083468 1.7028
-0.43873 0.065519 1.7009
-0.43716 0.041261 1.6975
-0.43653 0.023637 1.6908
-0.4356 -0.00053468 1.6909
-0.43481 -0.017965 1.6869
-0.43353 -0.041941 1.6855
-0.43233 -0.059257 1.6793
-0.43146 -0.082901 1.6713
-0.42869 -0.099777 1.6638
-0.42541 -0.12242 1.6485
-0.42508 -0.13939 1.6457
-0.42458 -0.1628 1.6493
-0.42525 -0.18033 1.6505
-0.42506 -0.20357 1.6479
-0.42409 -0.22004 1.6459
-0.42287 -0.2431 1.6405
-0.42092 -0.25933 1.6345
-0.4199 -0.28166 1.6309
-0.4183 -0.29801 1.6241
-0.41727 -0.32027 1.6201
-0.41698 -0.33607 1.617
-0.41517 -0.35823 1.6127
-0.41406 -0.37398 1.6093
-0.41274 -0.39548 1.6011
-0.41148 -0.41109 1.5961
-0.4099 -0.43246 1.5899
-0.40838 -0.44753 1.5833
-0.40659 -0.46783 1.5762
-0.40567 -0.48183 1.5719
-0.40332 -0.5023 1.5641
-0.40206 -0.51675 1.5561
-0.40014 -0.53616 1.5494
-0.39836 -0.55007 1.5445
-0.39536 -0.56857 1.5315
-0.394 -0.58074 1.5224
-0.39229 -0.59864 1.5117
-0.3404 0.48232 1.2659
-0.34569 0.47105 1.2801
-0.36202 0.48184 1.3478
-0.37159 0.47197 1.3838
-0.38527 0.47716 1.4279
-0.39274 0.4661 1.4587
-0.40628 0.46574 1.5076
-0.41512 0.45343 1.5338
-0.42635 0.45123 1.5847
-0.43332 0.43317 1.613
-0.44632 0.42912 1.6559
-0.45021 0.41074 1.6733
-0.45124 0.39436 1.676
-0.45562 0.37228 1.6914
-0.4635 0.36132 1.7166
-0.46798 0.34052 1.7356
-0.46886 0.32354 1.7386
-0.46957 0.29888 1.7413
-0.46842 0.28114 1.7392
-0.46717 0.25536 1.7353
-0.46735 0.23733 1.7329
-0.46616 0.21267 1.7286
-0.4645 0.19361 1.7229
-0.46375 0.16847 1.7184
-0.46271 0.15051 1.7154
-0.46193 0.12593 1.713
-0.46094 0.10812 1.7108
-0.45976 0.083421 1.7056
-0.45915 0.065635 1.6999
-0.45894 0.041243 1.6977
-0.45739 0.023647 1.6949
-0.45513 -0.00055913 1.6915
-0.45501 -0.018002 1.6876
-0.45418 -0.041968 1.6814
-0.45238 -0.059185 1.68
-0.45101 -0.083067 1.6726
-0.45012 -0.099799 1.6654
-0.44523 -0.1226 1.6501
-0.4447 -0.13947 1.6489
-0.44489 -0.16293 1.6477
-0.44458 -0.1799 1.6507
-0.44391 -0.20315 1.6463
-0.44374 -0.21974 1.6431
-0.44278 -0.24267 1.6374
-0.44093 -0.25913 1.6333
-0.43933 -0.28149 1.6274
-0.43817 -0.29772 1.6247
-0.43706 -0.32021 1.6194
-0.43624 -0.33627 1.6143
-0.43477 -0.3574 1.6097
-0.43277 -0.3731 1.606
-0.43142 -0.39451 1.5989
-0.43003 -0.40994 1.5932
-0.42814 -0.43134 1.5862
