# .PCD v0.7 - Point Cloud Data file format
VERSION 0.7
FIELDS x y z
SIZE 4 4 4
TYPE F F F
COUNT 1 1 1
WIDTH 2354
HEIGHT 1
VIEWPOINT 0 0 0 1 0 0 0
POINTS 2354
DATA ascii
0.27956 0.18992 0.89031
0.29016 0.18425 0.93395
0.28054 0.16922 0.89761
0.2842 0.1568 0.9052
0.29367 0.153 0.92694
0.30467 0.14412 0.97302
0.34462 0.15191 1.1051
0.34865 0.13761 1.1057
0.18591 0.067097 0.59258
0.17624 0.055731 0.56887
0.17191 0.048408 0.55111
0.16741 0.039758 0.53976
0.16548 0.033691 0.53414
0.1645 0.025855 0.53026
0.16278 0.020063 0.5247
0.16189 0.012583 0.51761
0.16107 0.0072048 0.5147
0.16068 -0.00019943 0.51236
0.15995 -0.0055398 0.51478
0.16006 -0.012853 0.51287
0.15887 -0.018084 0.51199
0.15915 -0.025333 0.50861
0.15825 -0.030587 0.51012
0.15908 -0.03762 0.50553
0.15819 -0.043016 0.50463
0.15817 -0.050389 0.50577
0.158 -0.055275 0.50546
0.1576 -0.06251 0.5047
0.15769 -0.067957 0.50303
0.1576 -0.07484 0.50293
0.15697 -0.079929 0.50071
0.157 -0.087524 0.50447
0.15782 -0.092533 0.5038
0.15726 -0.099872 0.50262
0.15712 -0.10531 0.50249
0.15736 -0.11312 0.50412
0.15767 -0.11717 0.50309
0.15825 -0.12559 0.50554
0.15858 -0.13103 0.50846
0.1591 -0.1391 0.50921
0.16037 -0.14474 0.51168
0.16118 -0.1534 0.51819
0.16309 -0.15915 0.52245
0.16616 -0.17134 0.53224
0.17765 -0.18951 0.56621
0.21578 -0.23883 0.68794
0.28495 -0.32403 0.90528
0.28917 -0.3448 0.92442
0.28987 -0.35318 0.92206
0.28895 -0.36543 0.91821
0.28911 0.36739 0.94801
0.29038 0.35747 0.96341
0.29174 0.34855 0.97214
0.29294 0.3354 0.97618
0.2938 0.3263 0.97903
0.29285 0.31411 0.97853
0.29812 0.30691 0.99003
0.29108 0.28719 0.95944
0.24975 0.23624 0.83025
0.23927 0.21471 0.78981
0.23984 0.20701 0.79168
0.25568 0.21095 0.85304
0.27699 0.21703 0.92139
0.2836 0.20995 0.94681
0.28416 0.20055 0.94868
0.28472 0.18747 0.94693
0.28523 0.17869 0.9486
0.28801 0.16596 0.96403
0.30895 0.16769 1.0344
0.33184 0.1637 1.1073
0.33229 0.15242 1.1076
0.23176 0.094463 0.77374
0.17296 0.065098 0.57978
0.16699 0.055129 0.5581
0.16464 0.047829 0.54433
0.16139 0.039342 0.53574
0.15861 0.033554 0.53167
0.15722 0.025606 0.52507
0.15603 0.020121 0.52121
0.15567 0.012618 0.51937
0.15491 0.0071858 0.51615
0.15443 -0.00019089 0.51454
0.15388 -0.0055238 0.51369
0.15353 -0.012841 0.51277
0.1532 -0.018104 0.51095
0.15303 -0.025381 0.51034
0.15259 -0.030581 0.5077
0.15247 -0.037737 0.50672
0 0 -1
0 0 -1
0 0 -1
0 0 -1
0 0 -1
0 0 -1
0 0 -1
0 0 -1
0 0 -1
0 0 -1
0 0 -1
0.15109 -0.11253 0.50276
0.15128 -0.11763 0.50363
0.15171 -0.12503 0.5046
0.15224 -0.13088 0.50601
0.15251 -0.13839 0.50842
0.15364 -0.1445 0.51085
0.15408 -0.15248 0.51329
0.15557 -0.1595 0.51844
0.15715 -0.16803 0.52589
0.16444 -0.18254 0.54748
0.17098 -0.19758 0.57048
0.2713 -0.32207 0.89693
0.28028 -0.34566 0.92724
0.28036 -0.35835 0.9309
0.28004 -0.37017 0.92669
0.29226 0.38478 1.0111
0.29196 0.37211 1.0109
0.29286 0.36578 1.0141
0.29721 0.35452 1.0184
0.29808 0.34491 1.0382
0.29757 0.33149 1.0423
0.29839 0.32419 1.0452
0.29768 0.30678 1.0353
0.28869 0.28517 1.0011
0.24118 0.22587 0.83565
0.27845 0.25479 0.9712
0.28332 0.24206 0.98132
0.28394 0.23241 0.98347
0.28432 0.21886 0.98241
0.28485 0.20906 0.98314
0.2856 0.19547 0.98569
0.29001 0.18889 1.003
0.30075 0.18086 1.0407
0.32841 0.18437 1.1399
0.32955 0.17174 1.1519
0.30245 0.14451 1.0277
0.17629 0.075017 0.60729
0.16307 0.063678 0.56433
0.15912 0.054378 0.55347
0.15671 0.047353 0.54025
0.15378 0.03921 0.53451
0.15143 0.033351 0.52731
0.15045 0.025619 0.52404
0.14977 0.020165 0.52222
0.14954 0.012574 0.51905
0.14898 0.0072102 0.51621
0.14812 -0.00018246 0.51541
0.14751 -0.0055047 0.51371
0.14748 -0.012836 0.51278
0.14716 -0.018076 0.51012
0.14643 -0.025287 0.50908
0 0 -1
0 0 -1
0 0 -1
0 0 -1
0 0 -1
0 0 -1
0 0 -1
0 0 -1
0 0 -1
0 0 -1
0 0 -1
0 0 -1
0 0 -1
0 0 -1
0 0 -1
0 0 0.50278
0.14569 -0.13075 0.50512
0.14607 -0.13812 0.50628
0.14681 -0.14378 0.50975
0.14783 -0.1518 0.51146
0.14822 -0.15829 0.51532
0.15007 -0.16742 0.51927
0.15396 -0.17717 0.53286
0.15948 -0.19229 0.5516
0.18963 -0.23469 0.65753
0.27041 -0.3459 0.92858
0.27476 -0.36396 0.94191
0.2751 -0.38087 0.95266
0.28697 0.40015 1.0415
0.29141 0.39223 1.0478
0.2926 0.38246 1.0511
0.29387 0.3679 1.0637
0.29474 0.35793 1.0608
0.2959 0.34402 1.0686
0.29872 0.33509 1.0715
0.29436 0.31738 1.0675
0.29307 0.30444 1.0599
0.28526 0.2813 1.039
0.28571 0.26827 1.0255
0.2839 0.25571 1.0403
0.28403 0.24341 1.031
0.28138 0.22549 1.0191
0.28194 0.2154 1.0212
0.2853 0.20587 1.0396
0.30097 0.20283 1.0916
0.31545 0.20031 1.1514
0.33705 0.1964 1.2117
0.33027 0.17663 1.1901
0.19325 0.096428 0.69692
0.16142 0.072204 0.58602
0.15416 0.06321 0.56314
0.15044 0.053079 0.54604
0.14791 0.046989 0.53742
0.14628 0.03898 0.52982
0.14533 0.03326 0.52807
0.14388 0.025665 0.52436
0.14338 0.020177 0.52154
0.14316 0.012608 0.51775
0.14289 0.0072055 0.51642
0.14202 -0.00017376 0.5142
0.14144 -0.0054907 0.51292
0.14118 -0.012796 0.51189
0 0 -1
0 0 -1
0 0 -1
0 0 -1
0 0 -1
0 0 -1
0 0 -1
0 0 -1
0 0 -1
0 0 -1
0 0 -1
0 0 -1
0 0 -1
0 0 -1
0 0 -1
0 0 -1
0 0 -1
0 0 -1
0 -0.1297 0.50526
0.13951 -0.13796 0.50621
0.13998 -0.14345 0.50652
0.141 -0.15139 0.50975
0.14177 -0.15772 0.51333
0.14314 -0.16663 0.51547
0.1455 -0.17494 0.52233
0.14738 -0.18487 0.53225
0.1557 -0.2015 0.56328
0.21891 -0.29714 0.79818
0.26539 -0.36972 0.95971
0.27632 -0.39271 0.99533
0.28464 0.4144 1.0769
0.28643 0.40077 1.0817
0.28733 0.38898 1.0846
0.2889 0.38051 1.0947
0.28775 0.36894 1.0914
0.28876 0.3546 1.0966
0.28932 0.3435 1.0937
0.28781 0.32481 1.0966
0.2829 0.31008 1.0733
0.28359 0.29161 1.0754
0.28312 0.27938 1.0727
0.27918 0.26197 1.0723
0.2798 0.25152 1.0564
0.28185 0.23789 1.0595
0.28277 0.22874 1.0695
0.28959 0.21861 1.1004
0.30694 0.21731 1.1535
0.3255 0.21332 1.2368
0.32583 0.19727 1.2237
0.31663 0.17717 1.1937
0.16199 0.084951 0.61243
0.15162 0.0707 0.57444
0.14561 0.062446 0.55434
0.1426 0.053217 0.54377
0.14074 0.046917 0.53651
0.14011 0.038993 0.53106
0.13899 0.033296 0.5268
0.13794 0.025734 0.52365
0.13723 0.020131 0.52107
0.1372 0.012653 0.51865
0.13615 0.0072146 0.51573
0.13559 -0.00016611 0.51448
0.13527 -0.0054838 0.51299
0 0 -1
0 0 -1
0 0 -1
0 0 -1
0 0 -1
0 0 -1
0 0 -1
0 0 -1
0 0 -1
0 0 -1
0 0 -1
0 0 -1
0 0 -1
0 0 -1
0 0 -1
0 0 -1
0 0 -1
0 0 -1
0 0 -1
0 0 -1
0.13336 -0.13762 0.50572
0.13385 -0.14308 0.50638
0.1348 -0.15124 0.50847
0.13561 -0.15716 0.51095
0.13626 -0.16526 0.51609
0.13735 -0.17377 0.5205
0.14051 -0.18229 0.52947
0.14427 -0.19366 0.54746
0.15565 -0.21935 0.58856
0.26602 -0.38495 1.0028
0.28044 -0.42291 1.0615
0.27959 0.4265 1.1106
0.2803 0.41249 1.1156
0.28074 0.4003 1.112
0.28237 0.38735 1.1176
0.28276 0.37645 1.12
0.28479 0.36223 1.1255
0.2842 0.35114 1.1222
0.28622 0.33455 1.1339
0.28311 0.32294 1.1246
0.28553 0.30785 1.1285
0.28479 0.29511 1.1305
0.28359 0.27829 1.1259
0.28297 0.26617 1.1274
0.2838 0.2508 1.1317
0.28872 0.24442 1.1565
0.29469 0.23432 1.168
0.30788 0.23112 1.2239
0.31778 0.21925 1.2627
0.31183 0.20401 1.242
0.26811 0.15715 1.0501
0.14915 0.081772 0.59347
0.14247 0.069736 0.56614
0.13869 0.061349 0.54853
0.13499 0.052732 0.53812
0.13456 0.046946 0.53256
0.13344 0.039051 0.52869
0.13235 0.033399 0.5276
0.13122 0.025696 0.5235
0.13106 0.020186 0.52195
0.13021 0.012622 0.51747
0.12984 0.0072278 0.51594
0.12951 -0.00015878 0.51559
0 0 -1
0 0 -1
0 0 -1
0 0 -1
0 0 -1
0 0 -1
0 0 -1
0 0 -1
0 0 -1
0 0 -1
0 0 -1
0 0 -1
0 0 -1
0 0 -1
0 0 -1
0 0 -1
0 0 -1
0 0 -1
0 0 -1
0 0 -1
0 0 -1
0 0 -1
0.12725 -0.14289 0.50582
0.12761 -0.1502 0.50641
0.12864 -0.15729 0.51119
0.12973 -0.16547 0.516
0.13058 -0.17298 0.52114
0.13193 -0.18181 0.52457
0.13537 -0.19115 0.53503
0.13942 -0.20597 0.55339
0.26513 -0.39821 1.0433
0.26687 -0.41988 1.0583
0.27031 0.43221 1.1291
0.27209 0.4237 1.1362
0.27535 0.41366 1.1497
0.27652 0.39917 1.1546
0.27798 0.38893 1.1581
0.2789 0.37472 1.165
0.27988 0.36365 1.1753
0.28134 0.34821 1.1797
0.28207 0.33583 1.1828
0.28199 0.32183 1.1795
0.28268 0.30854 1.1796
0.28359 0.29145 1.1734
0.28304 0.27834 1.1752
0.28388 0.26226 1.1787
0.28969 0.25686 1.2105
0.29653 0.24492 1.2479
0.3067 0.24131 1.2712
0.30743 0.22337 1.2701
0.29755 0.20458 1.2454
0.19601 0.1201 0.80247
0.13911 0.07985 0.58086
0.1337 0.06944 0.56068
0.13001 0.061344 0.54416
0.12857 0.052698 0.53909
0.1284 0.047002 0.53404
0.12716 0.039136 0.52984
0.12628 0.033361 0.52756
0.12501 0.025659 0.52322
0.12451 0.020156 0.52156
0.12409 0.012627 0.51807
0.12369 0.0072411 0.51739
0 0 -1
0 0 -1
0 0 -1
0 0 -1
0 0 -1
0 0 -1
0 0 -1
0 0 -1
0 0 -1
0 0 -1
0 0 -1
0 0 -1
0 0 -1
0 0 -1
0 0 -1
0 0 -1
0 0 -1
0 0 -1
0 0 -1
0 0 -1
0 0 -1
0 0 -1
0 0 -1
0 0 -1
0 0 -1
0.12269 -0.15648 0.50969
0.12285 -0.16539 0.5133
0.12441 -0.17226 0.51867
0.12574 -0.18152 0.5238
0.12691 -0.19017 0.53616
0.13011 -0.20264 0.54409
0.21102 -0.3347 0.87876
0.26522 -0.43895 1.1048
0.26358 0.44721 1.1507
0.26624 0.43579 1.1709
0.26838 0.42496 1.1746
0.27098 0.41072 1.1797
0.27179 0.39961 1.1974
0.27313 0.38438 1.2031
0.27523 0.37524 1.2092
0.27627 0.36041 1.216
0.27694 0.34872 1.217
0.27529 0.32867 1.2131
0.2733 0.31425 1.2106
0.274 0.29829 1.2145
0.2748 0.28641 1.2198
0.27871 0.27106 1.2289
0.28508 0.26768 1.2501
0.2942 0.25488 1.2833
0.29931 0.24487 1.3123
0.29952 0.22503 1.3057
0.27641 0.19943 1.2233
0.1536 0.099975 0.67936
0.13087 0.079324 0.57604
0.12662 0.068079 0.55828
0.12366 0.061186 0.54507
0.12218 0.053027 0.53699
0.12129 0.047051 0.53429
0.12014 0.039033 0.52892
0.11976 0.03332 0.52583
0.11884 0.025702 0.52322
0.11829 0.02016 0.52142
0.11769 0.012656 0.51905
0.11762 0.007253 0.51859
0 0 -1
0 0 -1
0 0 -1
0 0 -1
0 0 -1
0 0 -1
0 0 -1
0 0 -1
0 0 -1
0 0 -1
0 0 -1
0 0 -1
0 0 -1
0 0 -1
0 0 -1
0 0 -1
0 0 -1
0 0 -1
0 0 -1
0 0 -1
0 0 -1
0 0 -1
0 0 -1
0 0 -1
0 0 -1
0 0 -1
0.11661 -0.16564 0.51272
0.1177 -0.17198 0.51481
0.11901 -0.18053 0.5206
0.12069 -0.1894 0.53156
0.12242 -0.20013 0.54059
0.15238 -0.25641 0.66672
0.25206 -0.44348 1.1083
0.25496 0.45688 1.1939
0.25799 0.44383 1.1978
0.25986 0.43309 1.2016
0.26323 0.42251 1.2148
0.26453 0.41181 1.2314
0.26702 0.39858 1.2392
0.26818 0.38532 1.2428
0.26929 0.37149 1.248
0.27 0.3574 1.2489
0.26894 0.34072 1.2505
0.26872 0.32732 1.2535
0.2696 0.3101 1.2577
0.27202 0.29775 1.2672
0.27298 0.2815 1.2755
0.27838 0.2767 1.2924
0.28556 0.26034 1.3231
0.28444 0.24684 1.3255
0.28466 0.22813 1.3202
0.24898 0.18828 1.1502
0.1369 0.09395 0.63922
0.12312 0.078441 0.57183
0.11783 0.06743 0.54988
0.11734 0.061343 0.54645
0.11587 0.053037 0.53649
0.11508 0.047011 0.53227
0.11395 0.03906 0.52996
0.11368 0.033378 0.52717
0.11234 0.025699 0.52407
0.11224 0.020217 0.5221
0.11194 0.012694 0.52077
0.11152 0.0072726 0.51873
0 0 -1
0 0 -1
0 0 -1
0 0 -1
0 0 -1
0 0 -1
0 0 -1
0 0 -1
0 0 -1
0 0 -1
0 0 -1
0 0 -1
0 0 -1
0 0 -1
0 0 -1
0 0 -1
0 0 -1
0 0 -1
0 0 -1
0 0 -1
0 0 -1
0 0 -1
0 0 -1
0 0 -1
0 0 -1
0 0 -1
0.11032 -0.16406 0.50899
0.11164 -0.17197 0.5155
0.11249 -0.18041 0.5208
0.11399 -0.18922 0.52824
0.1152 -0.19992 0.53761
0.12853 -0.22797 0.59584
0.24061 -0.44487 1.1158
0.24284 0.46118 1.1995
0.24526 0.44762 1.205
0.24784 0.4398 1.2182
0.25088 0.42709 1.2327
0.25292 0.41783 1.2403
0.2557 0.40459 1.2633
0.25643 0.39323 1.2653
0.25797 0.37767 1.2668
0.25865 0.36461 1.2702
0.26 0.3476 1.2773
0.26183 0.33651 1.2965
0.26377 0.3213 1.3007
0.26328 0.30896 1.3037
0.26515 0.29115 1.3115
0.26947 0.28202 1.3287
0.2725 0.26519 1.3382
0.27275 0.25048 1.3383
0.26883 0.22904 1.3277
0.20448 0.16735 1.0136
0.12556 0.092488 0.61832
0.11509 0.077039 0.56351
0.11143 0.067594 0.5512
0.11093 0.061558 0.54776
0.1092 0.053168 0.53778
0.10856 0.046816 0.53355
0.10754 0.039118 0.53074
0.10727 0.033463 0.52675
0.10616 0.025708 0.52473
0.10592 0.020268 0.52305
0.10561 0.012691 0.52196
0 0 -1
0 0 -1
0 0 -1
0 0 -1
0 0 -1
0 0 -1
0 0 -1
0 0 -1
0 0 -1
0 0 -1
0 0 -1
0 0 -1
0 0 -1
0 0 -1
0 0 -1
0 0 -1
0 0 -1
0 0 -1
0 0 -1
0 0 -1
0 0 -1
0 0 -1
0 0 -1
0 0 -1
0 0 -1
0 0 -1
0 0 -1
0.10431 -0.16455 0.51013
0.10536 -0.17153 0.51663
0.10626 -0.18079 0.52072
0.10751 -0.18847 0.52809
0.10841 -0.1983 0.533
0.11723 -0.22095 0.57522
0.21879 -0.42878 1.0706
0.23117 0.46371 1.2001
0.23266 0.4542 1.2171
0.23544 0.44482 1.2299
0.2382 0.43219 1.2513
0.24104 0.42176 1.2608
0.24231 0.4091 1.2691
0.2441 0.39704 1.2811
0.24579 0.38376 1.2891
0.24809 0.37153 1.2945
0.25027 0.3568 1.305
0.25165 0.34651 1.3216
0.25352 0.32875 1.3342
0.25304 0.31567 1.3373
0.25485 0.29756 1.3413
0.25626 0.28427 1.3397
0.25822 0.26704 1.3434
0.25721 0.25337 1.3434
0.25327 0.2302 1.3347
0.16999 0.14484 0.88708
0.11607 0.089942 0.60736
0.10779 0.077215 0.56478
0.10606 0.068266 0.554
0.10451 0.0617 0.54676
0.10289 0.053045 0.53978
0.10184 0.04721 0.53459
0.10132 0.039147 0.53182
0.10089 0.033543 0.52753
0.099983 0.025768 0.52508
0.099786 0.020258 0.523
0.099505 0.01272 0.52135
0 0 -1
0 0 -1
0 0 -1
0 0 -1
0 0 -1
0 0 -1
0 0 -1
0 0 -1
0 0 -1
0 0 -1
0 0 -1
0 0 -1
0 0 -1
0 0 -1
0 0 -1
0 0 -1
0 0 -1
0 0 -1
0 0 -1
0 0 -1
0 0 -1
0 0 -1
0 0 -1
0 0 -1
0 0 -1
0 0 -1
0 0 -1
0.098045 -0.16488 0.5112
0.099042 -0.17185 0.51747
0.099609 -0.1809 0.52143
0.10117 -0.18861 0.52918
0.10213 -0.19805 0.53332
0.10948 -0.21944 0.57309
0.19486 -0.40624 1.0288
0.21728 0.46817 1.2254
0.22053 0.45699 1.231
0.22251 0.447 1.2387
0.22557 0.43862 1.2626
0.22812 0.42679 1.2721
0.23034 0.41372 1.2864
0.2313 0.40174 1.2979
0.23337 0.38727 1.3073
0.23591 0.37799 1.3218
0.23774 0.36297 1.333
0.24084 0.34973 1.3448
0.24184 0.33442 1.3559
0.24116 0.31847 1.3591
0.24188 0.30011 1.3567
0.24238 0.28659 1.3556
0.2428 0.2676 1.3527
0.24131 0.25342 1.3462
0.23746 0.23093 1.3279
0.14602 0.13352 0.81896
0.10694 0.088752 0.59787
0.10113 0.077923 0.56802
0.099509 0.068899 0.55532
0.098052 0.061895 0.54762
0.096408 0.053161 0.54103
0.095488 0.047215 0.53574
0.095013 0.039234 0.53253
0.094379 0.033599 0.52867
0.093619 0.025801 0.52621
0.093508 0.020304 0.52383
0 0 -1
0 0 -1
0 0 -1
0 0 -1
0 0 -1
0 0 -1
0 0 -1
0 0 -1
0 0 -1
0 0 -1
0 0 -1
0 0 -1
0 0 -1
0 0 -1
0 0 -1
0 0 -1
0 0 -1
0 0 -1
0 0 -1
0 0 -1
0 0 -1
0 0 -1
0 0 -1
0 0 -1
0 0 -1
0 0 -1
0 0 -1
0 0 -1
0.092298 -0.1655 0.51642
0.092789 -0.17218 0.51784
0.093322 -0.18097 0.52245
0.094913 -0.18919 0.53021
0.095582 -0.19817 0.53342
0.10176 -0.21794 0.56711
0.17187 -0.38247 0.96294
0.20505 0.47329 1.2355
0.20598 0.4578 1.2344
0.20744 0.45019 1.2491
0.21173 0.4361 1.268
0.21376 0.42873 1.2783
0.21535 0.41457 1.2962
0.21707 0.40553 1.3047
0.22061 0.39416 1.3232
0.22257 0.38177 1.3328
0.22535 0.36863 1.3561
0.22717 0.35696 1.3684
0.22862 0.33932 1.3774
0.22835 0.32513 1.3771
0.22665 0.30258 1.3661
0.22658 0.28726 1.3604
0.22671 0.26799 1.3582
0.22505 0.25314 1.3489
0.22137 0.23139 1.3305
0.13201 0.12881 0.80384
0.097877 0.087067 0.58966
0.095054 0.078817 0.57185
0.092917 0.068619 0.55979
0.091327 0.061953 0.54856
0.090116 0.053351 0.54202
0.089215 0.047312 0.53682
0.088719 0.039408 0.53361
0.088127 0.03367 0.52991
0.087418 0.025899 0.52672
0.087273 0.020349 0.52376
0 0 -1
0 0 -1
0 0 -1
0 0 -1
0 0 -1
0 0 -1
0 0 -1
0 0 -1
0 0 -1
0 0 -1
0 0 -1
0 0 -1
0 0 -1
0 0 -1
0 0 -1
0 0 -1
0 0 -1
0 0 -1
0 0 -1
0 0 -1
0 0 -1
0 0 -1
0 0 -1
0 0 -1
0 0 -1
0 0 -1
0 0 -1
0 0 -1
0.086178 -0.16622 0.51738
0.086636 -0.17306 0.5188
0.087134 -0.18129 0.5234
0.088379 -0.18929 0.52982
0.089243 -0.1986 0.53439
0.095007 -0.21831 0.56813
0.14868 -0.35227 0.89014
0.18542 0.4616 1.197
0.18851 0.44953 1.2102
0.19215 0.44634 1.242
0.19661 0.43683 1.2613
0.19812 0.4307 1.2837
0.2001 0.41855 1.2984
0.20315 0.41116 1.3179
0.20545 0.39484 1.3303
0.20852 0.38732 1.3536
0.2119 0.37257 1.3768
0.21242 0.36088 1.3773
0.21318 0.34304 1.3862
0.21312 0.32865 1.3831
0.21048 0.30478 1.3724
0.21016 0.28915 1.3576
0.2086 0.26714 1.3561
0.20508 0.25127 1.3442
0.20129 0.22684 1.3076
0.12259 0.12873 0.79239
0.090766 0.087225 0.58924
0.088469 0.078964 0.5731
0.086317 0.069167 0.56084
0.084811 0.061976 0.5492
0.083686 0.053452 0.54314
0.082999 0.047403 0.53824
0.082436 0.039484 0.53461
0.081722 0.033726 0.53094
0.081539 0.026055 0.5279
0.080991 0.020421 0.52664
0 0 -1
0 0 -1
0 0 -1
0 0 -1
0 0 -1
0 0 -1
0 0 -1
0 0 -1
0 0 -1
0 0 -1
0 0 -1
0 0 -1
0 0 -1
0 0 -1
0 0 -1
0 0 -1
0 0 -1
0 0 -1
0 0 -1
0 0 -1
0 0 -1
0 0 -1
0 0 -1
0 0 -1
0 0 -1
0 0 -1
0 0 -1
0 0 -1
0.080212 -0.16717 0.51901
0.080649 -0.17344 0.52203
0.081103 -0.18222 0.52559
0.082041 -0.18936 0.53063
0.083237 -0.19892 0.53776
0.089053 -0.21881 0.57065
0.1392 -0.3576 0.90596
0.16855 0.4539 1.1714
0.16997 0.44201 1.1923
0.17415 0.43858 1.2136
0.17806 0.4356 1.2494
0.18274 0.42571 1.2825
0.18391 0.41856 1.299
0.18745 0.41004 1.3172
0.18958 0.39437 1.3325
0.19484 0.39141 1.374
0.19874 0.37998 1.3986
0.19939 0.3687 1.4061
0.20143 0.34977 1.4172
0.19965 0.33202 1.3942
0.19422 0.30529 1.3723
0.18882 0.28357 1.3403
0.18737 0.26387 1.3223
0.1853 0.24546 1.3067
0.16343 0.20162 1.1651
0.11333 0.12895 0.79375
0.083755 0.087378 0.59026
0.081822 0.0791 0.57428
0.079826 0.069201 0.56181
0.078419 0.062084 0.55015
0.077469 0.053547 0.54445
0.076718 0.04759 0.53949
0.076165 0.039535 0.53555
0.075749 0.033787 0.53254
0.075289 0.026104 0.5297
0.074817 0.020505 0.52888
0.07458 0.01288 0.5259
0 0 -1
0 0 -1
0 0 -1
0 0 -1
0 0 -1
0 0 -1
0 0 -1
0 0 -1
0 0 -1
0 0 -1
0 0 -1
0 0 -1
0 0 -1
0 0 -1
0 0 -1
0 0 -1
0 0 -1
0 0 -1
0 0 -1
0 0 -1
0 0 -1
0 0 -1
0 0 -1
0 0 -1
0 0 -1
0 0 -1
0 0 -1
0.074291 -0.16743 0.52067
0.074539 -0.17403 0.52467
0.074975 -0.1829 0.52738
0.07573 -0.18965 0.53147
0.07736 -0.20184 0.54502
0.083005 -0.22363 0.58543
0.15254 -0.42517 1.0717
0.13528 0.403 1.0495
0.15568 0.44262 1.194
0.15983 0.4392 1.2178
0.16304 0.43176 1.2512
0.16491 0.42471 1.2631
0.16772 0.41706 1.3006
0.17131 0.40753 1.3047
0.17235 0.39325 1.3222
0.18138 0.39913 1.3956
0.18343 0.3834 1.4047
0.18449 0.37105 1.423
0.18688 0.35484 1.4368
0.18711 0.34 1.4401
0.17258 0.29585 1.3179
0.15005 0.24194 1.1407
0.14905 0.22622 1.1439
0.14933 0.21475 1.1426
0.11599 0.1561 0.89368
0.11537 0.14295 0.86693
0.07905 0.090164 0.60725
0.074941 0.079152 0.575
0.073113 0.069311 0.56255
0.072232 0.062682 0.55447
0.071023 0.053803 0.5464
0.07029 0.047784 0.54099
0.069759 0.0396 0.53641
0.069378 0.033898 0.53412
0.068961 0.026143 0.53377
0.068726 0.020558 0.52991
0.068484 0.012907 0.52838
0 0 -1
0 0 -1
0 0 -1
0 0 -1
0 0 -1
0 0 -1
0 0 -1
0 0 -1
0 0 -1
0 0 -1
0 0 -1
0 0 -1
0 0 -1
0 0 -1
0 0 -1
0 0 -1
0 0 -1
0 0 -1
0 0 -1
0 0 -1
0 0 -1
0 0 -1
0 0 -1
0 0 -1
0 0 -1
0 0 -1
0 0 -1
0.068093 -0.16803 0.52227
0.068565 -0.17451 0.52571
0.068906 -0.18348 0.53005
0.070139 -0.19102 0.53564
0.07177 -0.20433 0.55086
0.080204 -0.23613 0.61707
0.17927 -0.54589 1.3801
0.15749 0.51053 1.3381
0.15674 0.48947 1.3247
0.15465 0.46943 1.2888
0.1513 0.43947 1.2734
0.15175 0.42763 1.2774
0.15226 0.41971 1.3027
0.15551 0.40807 1.3188
0.15984 0.40374 1.359
0.16485 0.40132 1.4001
0.16706 0.3853 1.4212
0.16815 0.37347 1.4276
0.17009 0.35656 1.4388
0.17048 0.34239 1.4421
0.13189 0.25065 1.1399
0.12586 0.22325 1.056
0.10557 0.17787 0.89108
0.10417 0.16886 0.88802
0.10455 0.15513 0.88767
0.091665 0.12665 0.78022
0.076053 0.095897 0.64589
0.068047 0.079577 0.57766
0.066365 0.069275 0.56546
0.06557 0.062919 0.55567
0.064576 0.05422 0.54919
0.063955 0.047907 0.54406
0.063539 0.039669 0.5416
0.062999 0.034031 0.53662
0.062708 0.026184 0.5351
0.062466 0.020618 0.53123
0.062246 0.012963 0.52916
0 0 -1
0 0 -1
0 0 -1
0 0 -1
0 0 -1
0 0 -1
0 0 -1
0 0 -1
0 0 -1
0 0 -1
0 0 -1
0 0 -1
0 0 -1
0 0 -1
0 0 -1
0 0 -1
0 0 -1
0 0 -1
0 0 -1
0 0 -1
0 0 -1
0 0 -1
0 0 -1
0 0 -1
0 0 -1
0 0 -1
0 0 -1
0.061838 -0.16867 0.52387
0.062272 -0.17546 0.52872
0.062791 -0.184 0.53154
0.0637 -0.19245 0.53952
0.065596 -0.20544 0.55433
0.082972 -0.26845 0.70197
0.18072 -0.60768 1.5298
0.14576 0.52807 1.3739
0.14641 0.51082 1.3804
0.1483 0.5041 1.3983
0.15129 0.49347 1.4315
0.15403 0.48811 1.4554
0.15531 0.47092 1.4714
0.15249 0.44858 1.4466
0.15087 0.42201 1.4262
0.1504 0.4068 1.4206
0.15148 0.38899 1.4268
0.15225 0.37642 1.4358
0.15353 0.35895 1.4478
0.15318 0.34286 1.444
0.14122 0.29847 1.33
0.11303 0.22353 1.0573
0.093373 0.1779 0.88749
0.092549 0.16171 0.86513
0.082832 0.13927 0.80266
0.080048 0.1246 0.761
0.072109 0.10065 0.68037
0.061936 0.080852 0.58622
0.059595 0.069366 0.56757
0.058881 0.063002 0.55668
0.058186 0.054363 0.55182
0.057594 0.048046 0.54478
0.057072 0.039826 0.54251
0.056721 0.034121 0.53734
0.056552 0.026315 0.53604
0.056124 0.020647 0.53223
0.055916 0.013029 0.53147
0 0 -1
0 0 -1
0 0 -1
0 0 -1
0 0 -1
0 0 -1
0 0 -1
0 0 -1
0 0 -1
0 0 -1
0 0 -1
0 0 -1
0 0 -1
0 0 -1
0 0 -1
0 0 -1
0 0 -1
0 0 -1
0 0 -1
0 0 -1
0 0 -1
0 0 -1
0 0 -1
0 0 -1
0 0 -1
0 0 -1
0 0 -1
0.055837 -0.16922 0.52632
0.056096 -0.17588 0.53008
0.056774 -0.18556 0.53553
0.05765 -0.19292 0.54345
0.059993 -0.2106 0.56709
0.088647 -0.321 0.83919
0.16469 -0.61575 1.5527
0.12834 0.52617 1.3706
0.13016 0.5139 1.3927
0.13306 0.51001 1.419
0.13436 0.49668 1.4427
0.13708 0.49035 1.4691
0.13856 0.47763 1.4817
0.13918 0.46358 1.4929
0.1397 0.44295 1.4987
0.13859 0.42515 1.4849
0.13704 0.39656 1.4658
0.13737 0.3824 1.4695
0.13782 0.36473 1.4745
0.13771 0.35024 1.4764
0.13331 0.31657 1.4361
0.12032 0.27008 1.2682
0.096832 0.20076 1.0207
0.082002 0.16189 0.86613
0.072815 0.13543 0.78084
0.071387 0.12498 0.76762
0.068857 0.1087 0.73052
0.055274 0.081653 0.59644
0.053874 0.071041 0.57759
0.052278 0.063332 0.56094
0.051553 0.054427 0.55346
0.051151 0.048154 0.54884
0.050838 0.040052 0.54454
0.050254 0.034162 0.53782
0.050104 0.026348 0.53609
0.049983 0.020674 0.5347
0.049722 0.013038 0.5321
0 0 -1
0 0 -1
0 0 -1
0 0 -1
0 0 -1
0 0 -1
0 0 -1
0 0 -1
0 0 -1
0 0 -1
0 0 -1
0 0 -1
0 0 -1
0 0 -1
0 0 -1
0 0 -1
0 0 -1
0 0 -1
0 0 -1
0 0 -1
0 0 -1
0 0 -1
0 0 -1
0 0 -1
0 0 -1
0 0 -1
0 0 -1
0.049561 -0.16956 0.52915
0.050048 -0.17613 0.53245
0.050506 -0.18617 0.53695
0.051691 -0.19726 0.55008
0.054561 -0.21522 0.57749
0.11234 -0.45927 1.2008
0.14677 -0.61961 1.5657
0.1121 0.52907 1.3752
0.1134 0.51436 1.394
0.11593 0.51047 1.4203
0.11706 0.49712 1.4376
0.11942 0.4908 1.4705
0.12147 0.47902 1.4906
0.12267 0.46844 1.5052
0.12452 0.45457 1.5295
0.12556 0.44181 1.5458
0.12761 0.42462 1.5652
0.12848 0.41143 1.5724
0.12988 0.39336 1.5982
0.12809 0.37415 1.5758
0.12401 0.34177 1.5299
0.11635 0.30274 1.4406
0.10951 0.26718 1.3395
0.10336 0.23485 1.2413
0.072153 0.15243 0.90327
0.066797 0.13722 0.82595
0.062305 0.1141 0.77006
0.049189 0.083427 0.60481
0.047068 0.071644 0.5799
0.045829 0.063416 0.56365
0.045214 0.055027 0.55607
0.044548 0.048503 0.55061
0.044377 0.04029 0.54515
0.043766 0.034198 0.53838
0.043556 0.026404 0.53665
0.04353 0.020685 0.53526
0.043378 0.013062 0.53352
0 0 -1
0 0 -1
0 0 -1
0 0 -1
0 0 -1
0 0 -1
0 0 -1
0 0 -1
0 0 -1
0 0 -1
0 0 -1
0 0 -1
0 0 -1
0 0 -1
0 0 -1
0 0 -1
0 0 -1
0 0 -1
0 0 -1
0 0 -1
0 0 -1
0 0 -1
0 0 -1
0 0 -1
0 0 -1
0 0 -1
0.043178 -0.16236 0.52833
0.043382 -0.17051 0.5316
0.043851 -0.1784 0.53631
0.044517 -0.18778 0.54402
0.046024 -0.20032 0.56168
0.048377 -0.21881 0.5929
0.12255 -0.57454 1.5034
0.12845 -0.62514 1.5756
0.095815 0.53009 1.3796
0.096956 0.51593 1.3927
0.098751 0.5127 1.4254
0.099745 0.50066 1.4404
0.10198 0.49398 1.4741
0.10357 0.47945 1.4918
0.10561 0.47294 1.524
0.10643 0.45655 1.5381
0.108 0.4457 1.5603
0.10885 0.427 1.5697
0.11043 0.41676 1.5965
0.11101 0.39886 1.6037
0.1115 0.38374 1.612
0.11166 0.35906 1.6033
0.10917 0.33278 1.5745
0.10326 0.29653 1.5058
0.099366 0.27078 1.4391
0.093504 0.235 1.3694
0.085312 0.2022 1.2348
0.056992 0.1255 0.82847
0.044826 0.089245 0.64632
0.040647 0.07267 0.58887
0.03907 0.064237 0.56548
0.038625 0.055398 0.55922
0.038207 0.048597 0.55157
0.037948 0.040518 0.54785
0.037578 0.034448 0.54301
0.037209 0.026458 0.5393
0.037099 0.020832 0.5384
0.037057 0.013125 0.53662
0.036928 0.0075479 0.53348
0 0 -1
0 0 -1
0 0 -1
0 0 -1
0 0 -1
0 0 -1
0 0 -1
0 0 -1
0 0 -1
0 0 -1
0 0 -1
0 0 -1
0 0 -1
0 0 -1
0 0 -1
0 0 -1
0 0 -1
0 0 -1
0 0 -1
0 0 -1
0 0 -1
0 0 -1
0 0 -1
0 0 -1
0.036587 -0.15642 0.52569
0.036886 -0.16336 0.53206
0.037145 -0.17184 0.53525
0.037551 -0.1794 0.5396
0.038188 -0.19091 0.54994
0.040062 -0.20526 0.57027
0.045537 -0.24486 0.65635
0.10925 -0.60232 1.57
0.11012 -0.62661 1.5805
0.079204 0.52922 1.3827
0.080059 0.51779 1.3988
0.081605 0.51349 1.428
0.082779 0.50098 1.4435
0.084191 0.49492 1.4763
0.085501 0.47977 1.4926
0.087185 0.47325 1.5227
0.087665 0.45596 1.5361
0.089003 0.44689 1.5619
0.089847 0.42729 1.5706
0.091144 0.4185 1.5984
0.092212 0.39988 1.6183
0.09279 0.38522 1.6314
0.093059 0.36282 1.6365
0.092332 0.34328 1.6079
0.090025 0.31138 1.5801
0.085366 0.2817 1.5098
0.082185 0.25086 1.4437
0.077277 0.22143 1.3727
0.070537 0.1849 1.2384
0.042863 0.10265 0.75071
0.035057 0.075949 0.61666
0.033054 0.064949 0.57617
0.032145 0.055607 0.56541
0.031718 0.04898 0.55657
0.031344 0.04078 0.55027
0.031117 0.034874 0.5467
0.030987 0.026703 0.54169
0.030718 0.02091 0.53918
0.030622 0.013169 0.53722
0.030579 0.0075984 0.53714
0.03047 -9.0686e-05 0.53394
0 0 -1
0 0 -1
0 0 -1
0 0 -1
0 0 -1
0 0 -1
0 0 -1
0 0 -1
0 0 -1
0 0 -1
0 0 -1
0 0 -1
0 0 -1
0 0 -1
0 0 -1
0 0 -1
0 0 -1
0 0 -1
0 0 -1
0 0 -1
0 0 -1
0 0 -1
0 0 -1
0.030414 -0.15814 0.53126
0.030521 -0.1645 0.53473
0.03072 -0.17284 0.53777
0.03138 -0.18162 0.54741
0.031929 -0.19283 0.55679
0.034428 -0.2131 0.59984
0.049666 -0.32228 0.86804
0.090814 -0.60629 1.5798
0.091028 -0.62882 1.5847
0.062115 0.53219 1.384
0.063198 0.51857 1.3996
0.064491 0.5143 1.4298
0.065266 0.50102 1.4434
0.066293 0.49527 1.478
0.067218 0.47947 1.4932
0.068507 0.47349 1.5213
0.069096 0.45581 1.5355
0.070147 0.44538 1.5604
0.070674 0.42699 1.5712
0.071972 0.41872 1.5993
0.072659 0.39879 1.6083
0.073335 0.38554 1.6372
0.073543 0.3635 1.6423
0.073136 0.34667 1.63
0.071154 0.31219 1.5919
0.068224 0.28641 1.511
0.065429 0.25268 1.4601
0.062316 0.22629 1.3841
0.058545 0.19327 1.3112
0.043371 0.13307 0.97821
0.029791 0.081638 0.65786
0.026505 0.066915 0.59156
0.025576 0.056244 0.57178
0.025189 0.049477 0.5598
0.024899 0.041097 0.5512
0.024676 0.034929 0.54989
0.024448 0.026938 0.54664
0.024396 0.0211 0.54227
0.02422 0.013247 0.53976
0.024183 0.0076136 0.53933
0.024083 -8.9719e-05 0.53752
0 0 -1
0 0 -1
0 0 -1
0 0 -1
0 0 -1
0 0 -1
0 0 -1
0 0 -1
0 0 -1
0 0 -1
0 0 -1
0 0 -1
0 0 -1
0 0 -1
0 0 -1
0 0 -1
0 0 -1
0 0 -1
0 0 -1
0 0 -1
0 0 -1
0 0 -1
0.024022 -0.15048 0.53116
0.024082 -0.15916 0.53582
0.02427 -0.1651 0.53752
0.024491 -0.17523 0.54205
0.024968 -0.18321 0.55563
0.025723 -0.19594 0.57089
0.031096 -0.24691 0.68995
0.062914 -0.51808 1.3969
0.071927 -0.60826 1.5933
0.071961 -0.63187 1.5904
0.045664 0.5311 1.3839
0.046234 0.51899 1.4025
0.047262 0.51599 1.4312
0.047732 0.49963 1.4449
0.048476 0.49546 1.4786
0.049144 0.47934 1.4939
0.05008 0.47325 1.5215
0.050502 0.45548 1.5358
0.051142 0.44555 1.559
0.051541 0.42638 1.5719
0.052576 0.41823 1.5967
0.053062 0.39882 1.6091
0.053611 0.38712 1.6363
0.053756 0.36483 1.6414
0.053524 0.34734 1.6384
0.052123 0.31537 1.5961
0.050251 0.28654 1.5199
0.048366 0.2553 1.4617
0.045555 0.22679 1.3957
0.043329 0.19401 1.328
0.037814 0.15961 1.1482
0.025737 0.097624 0.78622
0.020106 0.069007 0.61525
0.019127 0.05714 0.58625
0.018518 0.049771 0.56773
0.018382 0.041458 0.55908
0.018106 0.035102 0.55134
0.017932 0.027086 0.54979
0.017814 0.021154 0.54571
0.017721 0.013272 0.54062
0.017677 0.0076516 0.54072
0.017636 -8.8778e-05 0.53849
0.017583 -0.0056672 0.53816
0 0 -1
0 0 -1
0 0 -1
0 0 -1
0 0 -1
0 0 -1
0 0 -1
0 0 -1
0 0 -1
0 0 -1
0 0 -1
0 0 -1
0 0 -1
0 0 -1
0 0 -1
0 0 -1
0 0 -1
0 0 -1
0 0 -1
0 0 -1
0.017516 -0.14469 0.53051
0.017646 -0.15147 0.5365
0.017724 -0.15953 0.53897
0.017945 -0.16724 0.54372
0.018068 -0.17798 0.5482
0.018642 -0.18632 0.56362
0.019605 -0.20516 0.59263
0.036229 -0.39334 1.0992
0.052328 -0.58946 1.5847
0.052806 -0.61155 1.5979
0.052897 -0.63411 1.596
0.028985 0.53175 1.3847
0.029255 0.51922 1.4034
0.02984 0.51611 1.4338
0.030123 0.49973 1.4463
0.030669 0.49507 1.4778
0.031053 0.47931 1.4933
0.031603 0.47306 1.5204
0.031836 0.45516 1.5357
0.032306 0.44489 1.5576
0.032529 0.42606 1.5673
0.033161 0.41651 1.5955
0.033463 0.39842 1.6086
0.033757 0.38444 1.6269
0.033839 0.36374 1.6356
0.03374 0.34464 1.6312
0.032884 0.31569 1.5931
0.031746 0.28732 1.5429
0.030757 0.2566 1.4794
0.029165 0.23004 1.4008
0.027784 0.19909 1.3401
0.024955 0.16249 1.1874
0.02037 0.11955 0.97114
0.013327 0.072836 0.6456
0.012384 0.059212 0.60056
0.011768 0.050826 0.57793
0.011656 0.041711 0.56423
0.01147 0.035474 0.55965
0.011369 0.027219 0.55196
0.01132 0.021318 0.55101
0.011236 0.013368 0.54613
0.011208 0.0076808 0.54459
0.011176 -8.8423e-05 0.54346
0.011105 -0.0056825 0.54088
0.011062 -0.013392 0.5385
0 0 -1
0 0 -1
0 0 -1
0 0 -1
0 0 -1
0 0 -1
0 0 -1
0 0 -1
0 0 -1
0 0 -1
0 0 -1
0 0 -1
0 0 -1
0 0 -1
0 0 -1
0.010996 -0.11779 0.53038
0.01098 -0.12368 0.53144
0.011011 -0.13173 0.53092
0.011134 -0.13789 0.53308
0.011159 -0.146 0.53721
0.011223 -0.15239 0.54144
0.011353 -0.16135 0.54227
0.011425 -0.16931 0.54862
0.011623 -0.17933 0.56098
0.01215 -0.19352 0.5806
0.013669 -0.2279 0.6556
0.032453 -0.55611 1.5579
0.033447 -0.59514 1.602
0.033567 -0.61287 1.6015
0.033512 -0.63457 1.5984
0.01216 0.53192 1.3859
0.012267 0.51927 1.4036
0.012468 0.51552 1.434
0.01261 0.49956 1.4469
0.012811 0.49513 1.4759
0.012911 0.47936 1.4936
0.013168 0.47261 1.5205
0.013246 0.4552 1.534
0.013419 0.44446 1.5553
0.013477 0.42511 1.5641
0.013633 0.41417 1.5886
0.013782 0.39553 1.6089
0.013886 0.3831 1.6149
0.013912 0.36141 1.6224
0.013808 0.34395 1.6123
0.013578 0.31549 1.5913
0.013125 0.28879 1.5431
0.012684 0.2578 1.4937
0.012068 0.23265 1.4208
0.01152 0.20208 1.363
0.010409 0.16825 1.2146
0.0088198 0.12459 1.015
0.0064681 0.085834 0.76018
0.0052869 0.061377 0.62198
0.0050111 0.052138 0.59119
0.0048376 0.04249 0.57814
0.0047811 0.035903 0.56473
0.0047114 0.027507 0.55973
0.0046804 0.021499 0.55379
0.004647 0.013469 0.55051
0.0046277 0.0077587 0.5479
0.0046017 -8.8653e-05 0.54474
0.004598 -0.0057392 0.54366
0.0045859 -0.013484 0.54325
0.0045806 -0.019091 0.54177
0.0045529 -0.026722 0.53872
0.0045333 -0.032206 0.5384
0.0045267 -0.039819 0.53684
0 0 -1
0 0 -1
0 0 -1
0 0 -1
0 0 -1
0 0 -1
0 0 -1
0 0 -1
0 0 -1
0 0 -1
0.0045616 -0.11072 0.53362
0.0045688 -0.1187 0.53378
0.0045746 -0.12475 0.53523
0.004631 -0.13237 0.53449
0.0046402 -0.1388 0.54012
0.0046699 -0.14694 0.54232
0.0047245 -0.15415 0.54403
0.0047514 -0.16321 0.5491
0.0048487 -0.17167 0.55898
0.0049992 -0.18555 0.574
0.0055101 -0.20996 0.63605
0.0092166 -0.36688 1.0583
0.014047 -0.57469 1.6036
0.01411 -0.59779 1.6073
0.014128 -0.61543 1.6071
0.014126 -0.63842 1.6073
-0.0046126 0.53262 1.387
-0.0047144 0.51926 1.4012
-0.0048346 0.51551 1.4323
-0.0049371 0.49934 1.4466
-0.0050484 0.49545 1.476
-0.005134 0.47882 1.4909
-0.0052545 0.47224 1.5206
-0.005343 0.45505 1.5319
-0.0054238 0.44338 1.5529
-0.0054972 0.42443 1.5635
-0.0055965 0.41387 1.5867
-0.005681 0.39539 1.6026
-0.0057483 0.38111 1.6127
-0.0057913 0.35999 1.6171
-0.0057955 0.34162 1.6123
-0.0057524 0.31572 1.5913
-0.0056226 0.29019 1.5525
-0.0054257 0.26175 1.4969
-0.0052348 0.23409 1.4364
-0.0050247 0.20546 1.3761
-0.0046249 0.17437 1.2523
-0.0039318 0.13288 1.0641
-0.0028382 0.088044 0.788
-0.0027611 0.074182 0.74698
-0.0022411 0.053865 0.61186
-0.0021588 0.043311 0.59114
-0.0021084 0.036376 0.56911
-0.0020869 0.027728 0.56669
-0.0020621 0.021727 0.56001
-0.002046 0.013618 0.55597
-0.002032 0.0078127 0.55282
-0.0020271 -8.9588e-05 0.55069
-0.0020198 -0.0057582 0.54672
-0.0020145 -0.013562 0.54515
-0.0020031 -0.019184 0.54498
-0.0020004 -0.026859 0.54402
-0.0019931 -0.032482 0.54115
-0.0019842 -0.039984 0.53855
-0.0019749 -0.045414 0.53652
0 0 -1
0 0 -1
0 0 -1
0 0 -1
0 0 -1
0 0 -1
0 0 -1
-0.0019352 0 0.53556
-0.0019303 -0.10585 0.53552
-0.0019268 -0.1116 0.53605
-0.0019172 -0.11945 0.53517
-0.0019332 -0.12537 0.53721
-0.0019276 -0.13388 0.54165
-0.00193 -0.13967 0.54494
-0.0019351 -0.14939 0.54593
-0.0019337 -0.15591 0.55215
-0.0019582 -0.16669 0.56061
-0.002001 -0.17752 0.57526
-0.0020855 -0.19526 0.60947
-0.003299 -0.31921 0.95951
-0.0054124 -0.55176 1.5881
-0.0054875 -0.57728 1.6148
-0.0054427 -0.60067 1.6127
-0.0054087 -0.61715 1.6126
-0.0053521 -0.63813 1.6103
-0.02144 0.53234 1.3842
-0.02167 0.51875 1.3994
-0.022228 0.51553 1.4322
-0.022498 0.49947 1.4465
-0.022901 0.49547 1.4759
-0.023182 0.47781 1.4907
-0.023637 0.47216 1.5177
-0.023927 0.45498 1.5336
-0.024213 0.44331 1.5528
-0.02442 0.42401 1.5634
-0.024794 0.41408 1.5872
-0.025041 0.39486 1.5994
-0.02527 0.38105 1.6119
-0.025427 0.35924 1.6176
-0.02543 0.34156 1.6162
-0.025142 0.31801 1.5972
-0.024663 0.29338 1.5634
-0.024028 0.26417 1.5293
-0.023114 0.23823 1.4517
-0.02222 0.20757 1.4064
-0.020309 0.17808 1.2975
-0.017579 0.13593 1.099
-0.013428 0.095172 0.85143
-0.012265 0.076987 0.78909
-0.011947 0.066183 0.74626
-0.0096567 0.045171 0.61249
-0.0092573 0.037256 0.59149
-0.0090507 0.028034 0.56883
-0.0089606 0.021979 0.56707
-0.0089041 0.01376 0.56338
-0.0088068 0.0078911 0.55725
-0.0088006 -9.0285e-05 0.55414
-0.0087465 -0.0058146 0.55244
-0.0087036 -0.013649 0.5496
-0.0086748 -0.019264 0.5467
-0.0086552 -0.026965 0.54592
-0.0085819 -0.032593 0.5445
-0.008569 -0.040307 0.54381
-0.0085632 -0.045786 0.54157
-0.0085382 -0.053337 0.53964
-0.0085268 -0.058841 0.53906
-0.0085091 -0.066526 0.53818
0 0 -1
0 0 -1
0 0 -1
-0.0084818 -0.093009 0.53912
-0.0084959 -0.098604 0.53873
-0.0084744 -0.1065 0.53779
-0.0085042 -0.11286 0.54092
-0.0085352 -0.1207 0.54459
-0.0085579 -0.12656 0.54729
-0.008579 -0.13524 0.54631
-0.00862 -0.1422 0.55057
-0.008721 -0.15153 0.55357
-0.0088151 -0.15871 0.56301
-0.0090258 -0.17243 0.57686
-0.0094447 -0.18658 0.60501
-0.013006 -0.26826 0.83572
-0.024724 -0.52802 1.5843
-0.0252 -0.56218 1.6216
-0.025212 -0.58034 1.62
-0.025115 -0.60228 1.618
-0.025024 -0.61823 1.6181
-0.02498 -0.63888 1.6125
-0.038242 0.53266 1.3838
-0.03863 0.5186 1.4007
-0.03959 0.51579 1.4346
-0.040044 0.49933 1.4462
-0.040806 0.49524 1.4756
-0.041331 0.47861 1.4915
-0.042025 0.47202 1.5201
-0.042441 0.45321 1.5333
-0.04297 0.44307 1.5537
-0.043231 0.42389 1.5642
-0.043982 0.41396 1.5855
-0.0444 0.39474 1.6015
-0.044791 0.38094 1.6115
-0.045058 0.35936 1.6235
-0.045146 0.34255 1.6165
-0.045085 0.31833 1.6185
-0.044597 0.30085 1.5969
-0.0433 0.26748 1.5506
-0.041356 0.2406 1.4903
-0.039962 0.2116 1.429
-0.036544 0.1815 1.3159
-0.0323 0.14131 1.1513
-0.024036 0.098799 0.87835
-0.023778 0.083207 0.85248
-0.024108 0.077398 0.88051
-0.021139 0.055491 0.74692
-0.01727 0.039395 0.62099
-0.01637 0.029032 0.59451
-0.015996 0.022131 0.56961
-0.01586 0.013881 0.56718
-0.01577 0.0079663 0.56353
-0.015662 -9.2004e-05 0.56062
-0.015602 -0.0058575 0.55713
-0.01555 -0.013771 0.55382
-0.015454 -0.019381 0.55237
-0.015433 -0.027235 0.54979
-0.015398 -0.032932 0.55041
-0.015317 -0.040473 0.54807
-0.015303 -0.046092 0.54672
-0.015249 -0.053722 0.54464
-0.015263 -0.059611 0.54542
-0.015211 -0.067318 0.54587
-0.015212 -0.073196 0.54515
-0.015164 -0.080867 0.54392
-0.015178 -0.086393 0.54307
-0.015138 -0.093996 0.54225
-0.01512 -0.099764 0.54365
-0.015157 -0.10778 0.54261
-0.015239 -0.11354 0.54967
-0.015356 -0.12218 0.55036
-0.015346 -0.12815 0.551
-0.015383 -0.13749 0.55449
-0.015644 -0.14481 0.55891
-0.015809 -0.1542 0.57034
-0.016332 -0.16485 0.58434
-0.016879 -0.1814 0.61354
-0.021536 -0.23918 0.77668
-0.043507 -0.5076 1.5698
-0.045108 -0.54155 1.6263
-0.04507 -0.56509 1.6295
-0.04504 -0.58274 1.6299
-0.044874 -0.60384 1.6249
-0.044827 -0.61935 1.62
-0.044608 -0.6409 1.6165
-0.054939 0.53253 1.3886
-0.055734 0.51912 1.4006
-0.056894 0.51517 1.4349
-0.057572 0.5009 1.4507
-0.058713 0.49538 1.4751
-0.059409 0.47881 1.4911
-0.060492 0.47193 1.5188
-0.060942 0.45302 1.5349
-0.061757 0.44362 1.5534
-0.062118 0.42359 1.5636
-0.063149 0.41378 1.5862
-0.063841 0.39545 1.6009
-0.064422 0.38182 1.6189
-0.064844 0.3611 1.6262
-0.064916 0.34379 1.6288
-0.065124 0.32089 1.6308
-0.064667 0.30206 1.6176
-0.063079 0.27395 1.5833
-0.061436 0.24807 1.5319
-0.05887 0.21846 1.4736
-0.054836 0.1884 1.3593
-0.048885 0.15002 1.2128
-0.036147 0.10275 0.89736
-0.03621 0.089863 0.8987
-0.047153 0.10284 1.165
-0.054036 0.099812 1.3369
-0.03113 0.04941 0.77371
-0.025723 0.031415 0.64257
-0.024019 0.023297 0.60058
-0.02344 0.01438 0.58672
-0.02284 0.0080112 0.57145
-0.022758 -9.341e-05 0.56335
-0.022525 -0.0059275 0.56332
-0.022443 -0.013927 0.56025
-0.022305 -0.019659 0.55852
-0.022234 -0.027523 0.55688
-0.022181 -0.033131 0.554
-0.02209 -0.040877 0.55237
-0.02207 -0.046629 0.55192
-0.022003 -0.054277 0.55014
-0.022 -0.059993 0.54863
-0.021939 -0.067748 0.54773
-0.02193 -0.073406 0.54704
-0.021945 -0.081099 0.54596
-0.021986 -0.087025 0.54511
-0.021965 -0.095019 0.54807
-0.022069 -0.10087 0.54728
-0.022048 -0.10901 0.55057
-0.022151 -0.11518 0.55312
-0.022253 -0.12384 0.55945
-0.022488 -0.13162 0.56381
-0.022593 -0.14031 0.56604
-0.022982 -0.14757 0.57259
-0.023541 -0.16018 0.58776
-0.025513 -0.18065 0.64067
-0.03349 -0.24915 0.84108
-0.06281 -0.48671 1.5757
-0.065064 -0.52631 1.6331
-0.065229 -0.5451 1.6371
-0.065117 -0.56788 1.6346
-0.064994 -0.58402 1.6319
-0.064808 -0.60488 1.6287
-0.064626 -0.62196 1.6245
-0.064334 -0.64291 1.6166
-0.071685 0.5322 1.3804
-0.072735 0.5189 1.4064
-0.074201 0.51556 1.4334
-0.075042 0.50063 1.4507
-0.076637 0.49555 1.4765
-0.077582 0.47964 1.4908
-0.078873 0.47167 1.5188
-0.079433 0.45347 1.5347
-0.080488 0.44337 1.5523
-0.081088 0.4245 1.5627
-0.082472 0.41364 1.5869
-0.083227 0.39605 1.6025
-0.084183 0.38308 1.6195
-0.084983 0.36206 1.6362
-0.085234 0.34673 1.6427
-0.0855 0.32421 1.6495
-0.085366 0.30616 1.6369
-0.083964 0.27948 1.6161
-0.082242 0.25565 1.5756
-0.079316 0.22527 1.5297
-0.074161 0.1964 1.4188
-0.066028 0.15597 1.2639
-0.048775 0.10395 0.92464
-0.048858 0.090913 0.92601
-0.070627 0.11921 1.3545
-0.075069 0.10601 1.4297
-0.07513 0.091203 1.4307
-0.055975 0.052211 1.065
-0.034131 0.025269 0.65544
-0.031989 0.015052 0.61273
-0.030639 0.0083037 0.58894
-0.030472 -9.8128e-05 0.58218
-0.029767 -0.0060044 0.57183
-0.029636 -0.014121 0.56735
-0.029567 -0.019926 0.56425
-0.029391 -0.027938 0.56246
-0.029321 -0.033674 0.56066
-0.029133 -0.041681 0.55894
-0.029006 -0.047076 0.5569
-0.02893 -0.054975 0.55502
-0.028935 -0.060677 0.5529
-0.029022 -0.068467 0.55199
-0.029048 -0.074119 0.55348
-0.028987 -0.082043 0.55432
-0.029007 -0.088314 0.55361
-0.028961 -0.096146 0.5554
-0.028997 -0.10177 0.55923
-0.029077 -0.11065 0.55818
-0.029275 -0.117 0.5638
-0.029522 -0.12622 0.56676
-0.029711 -0.13347 0.56976
-0.030186 -0.14377 0.58106
-0.031562 -0.15463 0.60293
-0.033928 -0.17758 0.65345
-0.058722 -0.31894 1.1276
-0.082883 -0.47361 1.594
-0.085458 -0.50482 1.6429
-0.08539 -0.52957 1.6427
-0.085465 -0.54658 1.6415
-0.085134 -0.56898 1.6377
-0.085038 -0.58436 1.6386
-0.084725 -0.60685 1.631
-0.084518 -0.62223 1.627
-0.084189 -0.64372 1.6228
-0.088658 0.53367 1.3843
-0.089722 0.51905 1.4057
-0.091724 0.51532 1.4335
-0.092663 0.50026 1.4498
-0.094471 0.49534 1.4776
-0.095768 0.47972 1.4954
-0.09732 0.47185 1.5203
-0.098138 0.45457 1.5354
-0.099347 0.44315 1.5513
-0.10032 0.42522 1.5703
-0.10169 0.41334 1.5876
-0.10301 0.39701 1.606
-0.10406 0.38391 1.6301
-0.10507 0.36398 1.6394
-0.10586 0.34898 1.6488
-0.10631 0.32745 1.6598
-0.10653 0.30997 1.6569
-0.10602 0.28511 1.6431
-0.10408 0.26453 1.6224
-0.1014 0.23339 1.5711
-0.09591 0.20487 1.4895
-0.087235 0.16585 1.3508
-0.065108 0.1124 1.0101
-0.065216 0.0983 1.0116
-0.092323 0.12724 1.4271
-0.096158 0.10909 1.4756
-0.096412 0.095591 1.5019
-0.096501 0.07411 1.5031
-0.08185 0.049377 1.2624
-0.051248 0.019738 0.80075
-0.040578 0.0089278 0.63052
-0.039097 -0.000105 0.60887
-0.037897 -0.0061706 0.59135
-0.037373 -0.014369 0.57937
-0.037057 -0.02026 0.57919
-0.037033 -0.028457 0.57454
-0.036798 -0.034298 0.56919
-0.036538 -0.042267 0.56805
-0.036508 -0.047696 0.56544
-0.036362 -0.055484 0.56259
-0.036194 -0.061239 0.56199
-0.036019 -0.069552 0.55982
-0.036084 -0.075298 0.56197
-0.036209 -0.083265 0.5642
-0.036277 -0.089811 0.56343
-0.03627 -0.097757 0.56467
-0.036411 -0.10419 0.56529
-0.036475 -0.11339 0.56955
-0.03697 -0.11945 0.57519
-0.037435 -0.13033 0.58062
-0.0385 -0.14025 0.60378
-0.040501 -0.15607 0.6359
-0.050605 -0.20466 0.79179
-0.080685 -0.34361 1.2621
-0.1054 -0.4647 1.6446
-0.10575 -0.49151 1.651
-0.10611 -0.50763 1.6524
-0.10584 -0.53082 1.65
-0.1055 -0.54868 1.6469
-0.10549 -0.57042 1.6435
-0.10513 -0.58685 1.6402
-0.10464 -0.60807 1.6327
-0.10436 -0.62362 1.6302
-0.10399 -0.64473 1.6225
-0.10552 0.53214 1.385
-0.10672 0.51907 1.4046
-0.10901 0.5152 1.4346
-0.1102 0.49986 1.4503
-0.11242 0.49582 1.4805
-0.11391 0.48012 1.4984
-0.1158 0.47272 1.5211
-0.11689 0.45468 1.5375
-0.11857 0.44453 1.5548
-0.11952 0.4269 1.572
-0.12083 0.41397 1.5881
-0.1227 0.39714 1.613
-0.12428 0.38497 1.6318
-0.12545 0.36495 1.6439
-0.12605 0.35133 1.6584
-0.12729 0.32928 1.6644
-0.12755 0.31259 1.6676
-0.12771 0.28848 1.667
-0.12651 0.26876 1.6573
-0.1239 0.24154 1.626
-0.11909 0.21565 1.5557
-0.11039 0.17843 1.4519
-0.089026 0.13114 1.1509
-0.089172 0.11469 1.1526
-0.11404 0.12995 1.4727
-0.11761 0.11449 1.5386
-0.11864 0.098999 1.5498
-0.11875 0.076751 1.551
-0.1176 0.060245 1.55
-0.11637 0.037378 1.5248
-0.080812 0.015143 1.0594
-0.055961 -0.00012879 0.72774
-0.047937 -0.0066305 0.63137
-0.046743 -0.015181 0.61011
-0.045263 -0.020997 0.59139
-0.044923 -0.029126 0.58642
-0.04475 -0.035089 0.58647
-0.044534 -0.043288 0.58434
-0.044296 -0.048925 0.57766
-0.043975 -0.056914 0.57499
-0.043863 -0.063063 0.57467
-0.043854 -0.070687 0.57299
-0.043769 -0.077283 0.57298
-0.043867 -0.085382 0.57455
-0.044005 -0.091616 0.57591
-0.044795 -0.10116 0.58373
-0.044831 -0.108 0.58416
-0.044958 -0.11655 0.58989
-0.046076 -0.12558 0.61185
-0.048828 -0.14198 0.64
-0.058518 -0.17861 0.76768
-0.083506 -0.27054 1.0961
-0.12368 -0.41894 1.6241
-0.12686 -0.45223 1.6619
-0.12679 -0.47109 1.6631
-0.12679 -0.49379 1.6623
-0.12669 -0.51126 1.6599
-0.12645 -0.53366 1.6547
-0.12609 -0.54944 1.6523
-0.12574 -0.57144 1.6492
-0.12537 -0.58789 1.6438
-0.12485 -0.60944 1.6367
-0.12447 -0.62441 1.6313
-0.12384 -0.64517 1.6234
-0.1222 0.53325 1.3851
-0.1236 0.51891 1.4065
-0.12625 0.51499 1.4348
-0.12767 0.49988 1.4497
-0.13072 0.49614 1.4818
-0.13194 0.48057 1.4993
-0.13431 0.47274 1.5218
-0.13586 0.45616 1.5391
-0.13772 0.44644 1.5627
-0.13904 0.42788 1.5782
-0.14014 0.4147 1.5918
-0.14235 0.39733 1.6126
-0.14461 0.38664 1.6347
-0.14574 0.36667 1.6534
-0.14691 0.3518 1.6659
-0.14841 0.33213 1.6786
-0.149 0.31633 1.6911
-0.14915 0.29285 1.6966
-0.14942 0.27339 1.683
-0.14785 0.24926 1.6815
-0.14425 0.22554 1.6335
-0.13753 0.19188 1.554
-0.11536 0.14682 1.2974
-0.11555 0.1284 1.2993
-0.13595 0.13636 1.5354
-0.14273 0.11885 1.6102
-0.14244 0.10235 1.6088
-0.14202 0.079346 1.6101
-0.14074 0.061786 1.5916
-0.14055 0.038816 1.5905
-0.1382 0.022202 1.5646
-0.13698 -0.00027652 1.5389
-0.10006 -0.011871 1.1245
-0.07256 -0.02026 0.81572
-0.058406 -0.023365 0.65884
-0.055894 -0.031544 0.63517
-0.055654 -0.037784 0.62896
-0.054969 -0.045988 0.61978
-0.054347 -0.051745 0.61113
-0.053413 -0.059639 0.60186
-0.053356 -0.065496 0.60122
-0.053192 -0.073963 0.60409
-0.053455 -0.081013 0.60423
-0.053645 -0.089748 0.60392
-0.054085 -0.097592 0.61119
-0.054759 -0.10653 0.61571
-0.058222 -0.12153 0.65996
-0.060002 -0.13487 0.68008
-0.079553 -0.1876 0.89796
-0.11055 -0.27826 1.2457
-0.14478 -0.38168 1.6356
-0.14816 -0.41457 1.6746
-0.14829 -0.43253 1.6808
-0.14807 -0.45643 1.6766
-0.14797 -0.47291 1.6733
-0.14749 -0.49574 1.6697
-0.14724 -0.51253 1.6685
-0.14662 -0.53565 1.6621
-0.14652 -0.5513 1.6566
-0.1459 -0.57287 1.6501
-0.14557 -0.58819 1.647
-0.14484 -0.61043 1.6415
-0.14454 -0.62591 1.6339
-0.14387 -0.64674 1.6254
-0.1388 0.53189 1.3772
-0.14031 0.51878 1.404
-0.14383 0.51515 1.4369
-0.14538 0.50005 1.454
-0.14881 0.49573 1.4803
-0.1503 0.48083 1.4993
-0.15306 0.47293 1.527
-0.15529 0.456 1.5446
-0.15704 0.44729 1.5643
-0.15864 0.42823 1.5798
-0.16015 0.41702 1.6004
-0.16273 0.39786 1.62
-0.16482 0.38768 1.6409
-0.16629 0.36869 1.6606
-0.16838 0.35403 1.6737
-0.16961 0.33322 1.6874
-0.1709 0.31814 1.7049
-0.17203 0.29606 1.7111
-0.17231 0.27876 1.7143
-0.17181 0.25439 1.7177
-0.17094 0.23352 1.6937
-0.16414 0.20221 1.6346
-0.14177 0.16049 1.4177
-0.142 0.14035 1.4198
-0.16188 0.14153 1.6141
-0.17032 0.1254 1.6948
-0.16788 0.10597 1.6713
-0.1679 0.082104 1.6695
-0.16583 0.063876 1.6545
-0.16479 0.040266 1.6379
-0.16264 0.022895 1.618
-0.16224 -0.00030033 1.6139
-0.16099 -0.016898 1.5948
-0.16015 -0.03964 1.5929
-0.14898 -0.052419 1.4701
-0.12885 -0.063097 1.2761
-0.10147 -0.060455 1.0078
-0.092879 -0.068852 0.92246
-0.079018 -0.066474 0.78375
-0.078022 -0.076339 0.77327
-0.075396 -0.081909 0.74908
-0.07526 -0.092497 0.74786
-0.075161 -0.10042 0.74864
-0.078561 -0.11654 0.78445
-0.092675 -0.14636 0.92262
-0.10774 -0.18567 1.0718
-0.14606 -0.26705 1.4479
-0.15517 -0.30543 1.5412
-0.16921 -0.35059 1.6822
-0.17045 -0.37697 1.6959
-0.17034 -0.39568 1.6925
-0.17006 -0.41922 1.6871
-0.16969 -0.43578 1.6888
-0.16928 -0.45845 1.6821
-0.16882 -0.47509 1.6784
-0.16856 -0.4981 1.6766
-0.16807 -0.51465 1.6728
-0.16738 -0.53769 1.6664
-0.16693 -0.5534 1.6622
-0.16611 -0.57468 1.655
-0.16563 -0.59004 1.6501
-0.16489 -0.61031 1.6428
-0.16462 -0.62622 1.6388
-0.1638 -0.64782 1.6282
-0.15479 0.52998 1.3802
-0.15693 0.51817 1.4024
-0.16135 0.51466 1.4354
-0.16289 0.50119 1.4528
-0.16669 0.4979 1.4849
-0.16861 0.48035 1.5003
-0.17206 0.47372 1.5301
-0.17381 0.45836 1.5438
-0.17633 0.44762 1.569
-0.1781 0.42917 1.5844
-0.17984 0.41732 1.5986
-0.18298 0.40125 1.6316
-0.1854 0.38974 1.6498
-0.18727 0.36956 1.6681
-0.18925 0.35592 1.6793
-0.1915 0.33514 1.6996
-0.19275 0.32135 1.7097
-0.19494 0.29876 1.7261
-0.19609 0.28168 1.741
-0.19654 0.25773 1.7447
-0.19638 0.23971 1.7439
-0.19165 0.20933 1.6947
-0.16942 0.16814 1.4912
-0.16969 0.14704 1.4934
-0.19174 0.14984 1.7
-0.19858 0.13067 1.7675
-0.19684 0.11074 1.7406
-0.19608 0.085623 1.7382
-0.19479 0.067299 1.722
-0.19365 0.041927 1.7158
-0.19206 0.02407 1.7025
-0.19121 -0.00032681 1.6989
-0.19121 -0.017936 1.696
-0.19063 -0.042131 1.6921
-0.19031 -0.059631 1.6916
-0.19021 -0.083812 1.6906
-0.19018 -0.1015 1.6943
-0.19116 -0.12565 1.6927
-0.19101 -0.14331 1.6905
-0.19043 -0.16702 1.6871
-0.18993 -0.18418 1.6829
-0.18962 -0.20798 1.6801
-0.19083 -0.22709 1.6976
-0.1925 -0.25419 1.71
-0.19441 -0.27335 1.7213
-0.19396 -0.29737 1.7174
-0.19144 -0.3121 1.6976
-0.19094 -0.33563 1.6932
-0.19132 -0.35325 1.6988
-0.19253 -0.38065 1.7078
-0.19213 -0.39856 1.7046
-0.1915 -0.42091 1.6991
-0.19107 -0.4378 1.695
-0.19044 -0.46031 1.6889
-0.1901 -0.47692 1.6845
-0.18936 -0.50006 1.6769
-0.18881 -0.51632 1.6721
-0.18818 -0.53807 1.6682
-0.18743 -0.55318 1.6656
-0.18665 -0.57459 1.6584
-0.18603 -0.59001 1.6525
-0.18537 -0.6111 1.644
-0.18484 -0.62624 1.6394
-0.18393 -0.64646 1.6333
-0.17157 0.52844 1.3795
-0.17356 0.51662 1.3967
-0.17851 0.51619 1.4336
-0.18034 0.50173 1.4541
-0.18476 0.49724 1.4838
-0.18688 0.48014 1.4984
-0.19112 0.47672 1.5322
-0.19311 0.45837 1.5493
-0.19616 0.44853 1.5762
-0.19823 0.43059 1.588
-0.19944 0.4192 1.6034
-0.20268 0.40183 1.6299
-0.20586 0.39109 1.6569
-0.20807 0.37268 1.6717
-0.21048 0.35792 1.6922
-0.21297 0.33812 1.7142
-0.21503 0.32225 1.7261
-0.21695 0.30031 1.7393
-0.21985 0.28584 1.7586
-0.22069 0.26185 1.7693
-0.22103 0.24386 1.7718
-0.2176 0.21523 1.7446
-0.19425 0.17522 1.5547
-0.19455 0.15323 1.5569
-0.22009 0.15579 1.7639
-0.22687 0.13393 1.8144
-0.22345 0.11383 1.7931
-0.2229 0.08821 1.7924
-0.2229 0.069382 1.7777
-0.22217 0.043571 1.7773
-0.22057 0.02498 1.7669
-0.21954 -0.00035073 1.7588
-0.22005 -0.018629 1.7587
-0.21874 -0.043742 1.7539
-0.21868 -0.061953 1.7543
-0.21856 -0.087029 1.7533
-0.21863 -0.10533 1.7545
-0.2191 -0.13077 1.7585
-0.2191 -0.14893 1.7632
-0.21919 -0.17449 1.7611
-0.2194 -0.19271 1.7595
-0.2193 -0.21748 1.7576
-0.21926 -0.23524 1.7543
-0.21883 -0.2599 1.7509
-0.21839 -0.27758 1.7471
-0.21688 -0.30176 1.7383
-0.21438 -0.31544 1.7184
-0.21391 -0.33951 1.7118
-0.21357 -0.35764 1.7104
-0.21445 -0.38259 1.7159
-0.21392 -0.39957 1.7127
-0.21311 -0.42284 1.7068
-0.21226 -0.43915 1.7026
-0.21147 -0.4617 1.6948
-0.21089 -0.47787 1.6903
-0.21008 -0.50005 1.6839
-0.20948 -0.51611 1.6788
-0.20863 -0.53855 1.6711
-0.2081 -0.55476 1.666
-0.20718 -0.57629 1.6597
-0.20639 -0.59036 1.6544
-0.20542 -0.61193 1.6469
-0.20476 -0.62768 1.6407
-0.20384 -0.64918 1.6329
