# .PCD v0.7 - Point Cloud Data file format
VERSION 0.7
FIELDS x y z
SIZE 4 4 4
TYPE F F F
COUNT 1 1 1
WIDTH 1935
HEIGHT 1
VIEWPOINT 0 0 0 1 0 0 0
POINTS 1935
DATA ascii
0.064722 0.10547 0.49974
0.065533 0.099151 0.50421
0.066453 0.095362 0.51067
0.066797 0.088729 0.51349
0.067872 0.084932 0.52251
0.068457 0.077817 0.52731
0.069702 0.07396 0.53834
0.070778 0.067262 0.544
0.072095 0.062469 0.55295
0.075993 0.057368 0.58466
0.12803 0.08702 0.98512
0.20894 0.11927 1.6136
0.21861 0.10724 1.6853
0.22017 0.08365 1.6981
0.22174 0.066512 1.7129
0.22315 0.041999 1.7215
0.22321 0.024339 1.7229
0.22423 -0.00034765 1.7315
0.22499 -0.018331 1.7358
0.22536 -0.043257 1.7354
0.2258 -0.061336 1.7359
0.2258 -0.086303 1.7424
0.22658 -0.10451 1.7481
0.22652 -0.1297 1.7468
0.2264 -0.14771 1.7488
0.2273 -0.17342 1.7481
0.22764 -0.19186 1.7545
0.22736 -0.21679 1.7542
0.22733 -0.2351 1.7544
0.22693 -0.25974 1.7534
0.22817 -0.27854 1.7566
0.22829 -0.30434 1.7607
0.22913 -0.32391 1.7624
0.2287 -0.34859 1.7616
0.22848 -0.36703 1.7608
0.22795 -0.39164 1.758
0.22753 -0.40902 1.7579
0.22772 -0.43295 1.7523
0.22728 -0.4528 1.7537
0.22686 -0.47717 1.7483
0.22785 -0.49557 1.7526
0.22712 -0.51904 1.7459
0.22671 -0.53596 1.7437
0.22597 -0.55886 1.7383
0.22609 -0.5772 1.737
0.2255 -0.60181 1.7355
0.22525 -0.61941 1.7326
0.22428 -0.64144 1.7247
0.22263 -0.656 1.7099
0.22138 -0.67431 1.6996
0.054594 0.17599 0.46186
0.054601 0.1706 0.4624
0.05439 0.16592 0.46218
0.055189 0.16109 0.46625
0.055024 0.15642 0.46717
0.055723 0.15095 0.47057
0.055917 0.14653 0.47351
0.056344 0.14119 0.47759
0.056677 0.13674 0.4804
0.056979 0.13096 0.48368
0.057343 0.12692 0.48764
0.057831 0.12105 0.49215
0.058429 0.11698 0.49527
0.058609 0.11033 0.49808
0.058731 0.10551 0.49957
0.059612 0.099596 0.50507
0.060444 0.095496 0.51275
0.060907 0.089102 0.51659
0.061839 0.085157 0.52556
0.062339 0.078162 0.52885
0.063302 0.074249 0.54021
0.064551 0.06766 0.54891
0.066313 0.063334 0.56154
0.069427 0.058697 0.59366
0.17178 0.12888 1.4633
0.1983 0.12485 1.6866
0.20115 0.10871 1.7128
0.20344 0.085144 1.7312
0.20401 0.067376 1.7371
0.20449 0.042636 1.7383
0.20467 0.024601 1.7425
0.20508 -0.00033924 1.7469
0.20543 -0.018449 1.7469
0.20553 -0.043527 1.7464
0.20604 -0.061801 1.7535
0.20613 -0.086958 1.7533
0.20643 -0.10523 1.7574
0.20631 -0.13049 1.7577
0.20686 -0.14886 1.759
0.20715 -0.17439 1.7592
0.20734 -0.19278 1.7647
0.20752 -0.21823 1.7631
0.20786 -0.23689 1.768
0.20801 -0.26272 1.7704
0.20856 -0.28141 1.7742
0.20869 -0.30719 1.7764
0.20894 -0.32646 1.7779
0.20921 -0.35201 1.777
0.20954 -0.37043 1.7785
0.20942 -0.3967 1.7813
0.20926 -0.41492 1.7798
0.20934 -0.4409 1.7793
0.20982 -0.45951 1.7851
0.20993 -0.48653 1.7788
0.20946 -0.50388 1.7829
0.21028 -0.53018 1.7845
0.2101 -0.54825 1.7831
0.20955 -0.57172 1.7792
0.2096 -0.59002 1.7764
0.20875 -0.61291 1.7687
0.20761 -0.62899 1.7627
0.20665 -0.65129 1.7535
0.20579 -0.66553 1.7362
0.20321 -0.68156 1.7221
0.049168 0.17792 0.46079
0.049177 0.17175 0.46321
0.049194 0.16641 0.46474
0.049565 0.16156 0.46812
0.049773 0.15684 0.46918
0.050089 0.1517 0.47364
0.050281 0.14694 0.47512
0.050686 0.14165 0.47995
0.050985 0.13717 0.48236
0.051369 0.13155 0.48499
0.051607 0.1276 0.48825
0.052067 0.12144 0.49277
0.052496 0.11713 0.49718
0.052782 0.11057 0.50002
0.052899 0.10564 0.50296
0.053979 0.10061 0.50841
0.054554 0.095909 0.51534
0.054767 0.089516 0.51919
0.055549 0.08539 0.52667
0.056156 0.078809 0.53115
0.057602 0.075179 0.54507
0.058329 0.06798 0.5527
0.060114 0.064513 0.57232
0.06463 0.060276 0.6119
0.17178 0.14383 1.6309
0.1805 0.12653 1.7139
0.18249 0.10999 1.7322
0.18311 0.085451 1.7386
0.18354 0.067621 1.7405
0.18386 0.042723 1.7444
0.18412 0.024692 1.7497
0.18442 -0.00032907 1.7502
0.18462 -0.018496 1.7507
0.18507 -0.043678 1.7565
0.18519 -0.061938 1.7567
0.18532 -0.08717 1.7607
0.18542 -0.10554 1.7617
0.18583 -0.13089 1.7627
0.18624 -0.14951 1.7638
0.18637 -0.17495 1.7659
0.18663 -0.19348 1.7683
0.18688 -0.21909 1.7727
0.18713 -0.23809 1.7763
0.18756 -0.26372 1.7792
0.1878 -0.28273 1.7828
0.18795 -0.3089 1.7834
0.18834 -0.32773 1.7859
0.18852 -0.35307 1.7844
0.18858 -0.37265 1.7888
0.18857 -0.39777 1.7868
0.18914 -0.41714 1.7876
0.18926 -0.4429 1.7917
0.1893 -0.46301 1.7906
0.18919 -0.48801 1.7936
0.18993 -0.50742 1.7991
0.18953 -0.53286 1.7976
0.19031 -0.5531 1.7983
0.19007 -0.57736 1.7992
0.19051 -0.59598 1.8005
0.18994 -0.62199 1.7961
0.18981 -0.63926 1.7902
0.189 -0.66199 1.7814
0.18818 -0.67625 1.7736
0.18673 -0.69836 1.762
0.043387 0.17837 0.46369
0.043627 0.1721 0.46472
0.043638 0.16724 0.46593
0.043993 0.16223 0.4707
0.044125 0.15751 0.47048
0.044544 0.15196 0.47595
0.044563 0.14755 0.47735
0.044923 0.14238 0.48149
0.045227 0.13786 0.48364
0.045604 0.1319 0.48902
0.045929 0.12793 0.49118
0.046257 0.12189 0.49569
0.046595 0.11732 0.49898
0.046884 0.11176 0.50247
0.047509 0.1073 0.50701
0.047926 0.10114 0.5104
0.048377 0.096477 0.51658
0.048652 0.08978 0.51984
0.049615 0.086052 0.53026
0.050181 0.079146 0.53471
0.051082 0.075379 0.54597
0.052159 0.068877 0.55917
0.054547 0.065755 0.58357
0.060767 0.063845 0.65458
0.15699 0.14819 1.6831
0.16085 0.12737 1.7263
0.16185 0.11024 1.7393
0.16249 0.085744 1.7421
0.16264 0.067742 1.7446
0.16306 0.042828 1.7487
0.16328 0.024753 1.7522
0.16353 -0.00032007 1.7533
0.16385 -0.018527 1.7574
0.164 -0.043718 1.759
0.16419 -0.061966 1.761
0.16434 -0.087358 1.7637
0.1645 -0.10583 1.7638
0.1647 -0.13119 1.7666
0.16507 -0.14986 1.7689
0.16526 -0.17528 1.7722
0.16557 -0.19402 1.771
0.16583 -0.21973 1.776
0.16608 -0.23842 1.7828
0.16649 -0.26461 1.7826
0.1665 -0.28334 1.7861
0.16672 -0.30979 1.7893
0.16709 -0.32862 1.7894
0.16739 -0.35504 1.7912
0.16754 -0.37344 1.7941
0.16794 -0.39941 1.7936
0.1682 -0.41899 1.7981
0.16812 -0.44477 1.798
0.1682 -0.46437 1.8019
0.16864 -0.49055 1.8059
0.16855 -0.50954 1.8065
0.16909 -0.53645 1.8055
0.16907 -0.55523 1.8086
0.1693 -0.58083 1.8087
0.169 -0.60002 1.8066
0.16889 -0.62595 1.8037
0.16899 -0.64364 1.8072
0.16832 -0.66651 1.7991
0.16778 -0.68312 1.7927
0.16672 -0.70545 1.7755
0.038006 0.17885 0.46298
0.038078 0.17269 0.4663
0.038129 0.16802 0.46731
0.038486 0.16245 0.47241
0.0386 0.15801 0.47257
0.038957 0.15281 0.47847
0.038881 0.14831 0.47873
0.039308 0.14286 0.4829
0.039548 0.1384 0.48423
0.039807 0.13267 0.49001
0.040101 0.12832 0.49367
0.040455 0.12229 0.49652
0.040621 0.11851 0.49997
0.041054 0.11189 0.50448
0.04161 0.10788 0.50943
0.041824 0.10143 0.51548
0.042163 0.096801 0.51856
0.042685 0.090527 0.52361
0.043356 0.086291 0.53389
0.043798 0.079777 0.53942
0.045105 0.075831 0.55123
0.046042 0.070057 0.56504
0.049182 0.068145 0.60045
0.065011 0.079249 0.80317
0.13848 0.1501 1.7056
0.14035 0.12778 1.7315
0.1413 0.11044 1.7413
0.14166 0.085837 1.7453
0.14189 0.067859 1.7498
0.14205 0.04293 1.7518
0.14228 0.02479 1.7543
0.14242 -0.00031197 1.7563
0.1427 -0.018551 1.7611
0.14283 -0.043765 1.7615
0.14301 -0.062107 1.763
0.14333 -0.087532 1.766
0.14343 -0.10592 1.7669
0.14353 -0.13149 1.768
0.14382 -0.15006 1.7718
0.14407 -0.17544 1.7717
0.1442 -0.19425 1.7785
0.14443 -0.21996 1.778
0.14481 -0.23897 1.7847
0.14504 -0.26491 1.7868
0.14541 -0.28385 1.7878
0.14548 -0.31021 1.793
0.14553 -0.32901 1.7912
0.14598 -0.35538 1.793
0.14598 -0.37379 1.7996
0.14639 -0.40007 1.7982
0.14657 -0.42018 1.8046
0.14661 -0.44556 1.8058
0.14692 -0.46545 1.8065
0.14697 -0.49116 1.8087
0.14757 -0.5114 1.8095
0.14748 -0.53845 1.8131
0.14801 -0.55764 1.8178
0.14765 -0.5835 1.8151
0.14784 -0.60311 1.8133
0.14772 -0.6284 1.8158
0.14766 -0.64595 1.8114
0.14728 -0.66889 1.8043
0.14705 -0.68721 1.8012
0.14639 -0.70968 1.7954
0.032578 0.17987 0.4673
0.032519 0.17314 0.46843
0.032588 0.16847 0.46938
0.032911 0.16343 0.47524
0.032938 0.15907 0.47474
0.033268 0.15311 0.47892
0.033227 0.14925 0.4798
0.033519 0.14346 0.48568
0.033713 0.13917 0.48812
0.034057 0.13357 0.49152
0.034301 0.12905 0.49427
0.034539 0.12283 0.49857
0.034744 0.1188 0.50199
0.035158 0.11242 0.50686
0.035482 0.10856 0.51153
0.035763 0.10178 0.51712
0.036007 0.097066 0.52084
0.036368 0.090657 0.52719
0.037143 0.086772 0.53458
0.037445 0.080182 0.54546
0.038539 0.07639 0.55792
0.039811 0.070788 0.57612
0.043374 0.071271 0.63255
0.093332 0.13316 1.3526
0.11878 0.15182 1.7251
0.11992 0.12819 1.7401
0.1204 0.11068 1.7441
0.12063 0.085937 1.7497
0.12082 0.067999 1.7519
0.12106 0.042978 1.7549
0.12121 0.024852 1.7572
0.12132 -0.00030485 1.7607
0.12157 -0.018565 1.7627
0.12165 -0.043802 1.7633
0.12192 -0.062189 1.766
0.12209 -0.087626 1.7681
0.12211 -0.10607 1.7706
0.12238 -0.13163 1.77
0.1225 -0.15016 1.7742
0.1227 -0.17563 1.7753
0.12291 -0.19447 1.7801
0.12299 -0.2204 1.7808
0.12337 -0.23967 1.7863
0.12359 -0.26534 1.7902
0.12381 -0.28408 1.7896
0.12387 -0.31033 1.7906
0.12389 -0.32927 1.7928
0.1243 -0.35556 1.7938
0.12431 -0.37484 1.8012
0.12475 -0.40102 1.8015
0.12515 -0.4209 1.8072
0.12515 -0.44686 1.8089
0.12516 -0.46651 1.8091
0.12568 -0.4933 1.8146
0.12581 -0.51259 1.8173
0.12601 -0.53936 1.8164
0.1262 -0.55965 1.8215
0.12627 -0.58522 1.8191
0.12633 -0.60539 1.8209
0.12616 -0.62961 1.8195
0.12619 -0.64911 1.8173
0.12601 -0.67436 1.8166
0.12572 -0.69158 1.8114
0.12571 -0.71537 1.8091
0.026811 0.1795 0.46998
0.026979 0.17384 0.47189
0.027025 0.16877 0.47205
0.027325 0.16369 0.47569
0.027295 0.15936 0.47671
0.027529 0.15391 0.48178
0.027568 0.1497 0.48344
0.027814 0.14417 0.48732
0.028006 0.13993 0.48897
0.028237 0.13402 0.49343
0.028386 0.12935 0.49705
0.028563 0.12367 0.50282
0.028797 0.11933 0.50469
0.029036 0.11308 0.50901
0.02931 0.10872 0.51344
0.029562 0.10212 0.51778
0.029906 0.097933 0.52354
0.030248 0.091457 0.52886
0.030831 0.087608 0.54206
0.031267 0.080812 0.54828
0.03238 0.078132 0.56774
0.033554 0.072472 0.58973
0.041684 0.082519 0.73116
0.09365 0.16247 1.6512
0.098639 0.1527 1.7349
0.099166 0.12864 1.7432
0.099417 0.11089 1.7496
0.099582 0.086106 1.7524
0.099816 0.068056 1.7555
0.099958 0.043032 1.7569
0.10004 0.024885 1.7587
0.1003 -0.00029895 1.7632
0.1003 -0.018583 1.7651
0.10049 -0.043902 1.7673
0.10058 -0.062311 1.7687
0.10073 -0.087681 1.7718
0.1008 -0.10622 1.7719
0.10103 -0.13182 1.7729
0.10108 -0.15028 1.777
0.10128 -0.17602 1.7777
0.1014 -0.1946 1.7815
0.10161 -0.2208 1.7831
0.10184 -0.24003 1.7906
0.10203 -0.26585 1.7915
0.10201 -0.28427 1.7907
0.10215 -0.31015 1.7907
0.10223 -0.32939 1.7919
0.10249 -0.3558 1.7951
0.10265 -0.37552 1.8026
0.10301 -0.40189 1.8031
0.10334 -0.4215 1.8117
0.10339 -0.44772 1.8118
0.10342 -0.46765 1.8159
0.10377 -0.49442 1.8165
0.10402 -0.51386 1.822
0.10405 -0.54108 1.8192
0.1044 -0.56017 1.8254
0.10433 -0.58663 1.8254
0.10455 -0.606 1.8262
0.10449 -0.63261 1.8248
0.10458 -0.65163 1.8262
0.10441 -0.67644 1.8223
0.10446 -0.69473 1.822
0.10434 -0.72065 1.8173
0.021352 0.18029 0.46772
0.021442 0.17439 0.47245
0.021373 0.17008 0.47372
0.021624 0.16449 0.47794
0.021668 0.16007 0.47944
0.021783 0.15474 0.48425
0.021841 0.15042 0.48439
0.022031 0.14465 0.49054
0.02211 0.14063 0.4919
0.022339 0.1346 0.49663
0.022419 0.13035 0.49994
0.022657 0.12377 0.50477
0.022783 0.11952 0.50729
0.02302 0.11386 0.51225
0.023189 0.10915 0.51654
0.023396 0.10313 0.5222
0.023617 0.098577 0.52693
0.024055 0.092185 0.53428
0.024474 0.08831 0.54557
0.024832 0.082259 0.5561
0.0261 0.079558 0.58235
0.027333 0.075351 0.60932
0.059008 0.14874 1.3194
0.076467 0.16834 1.7066
0.077903 0.15347 1.7416
0.07817 0.12892 1.7488
0.078309 0.11113 1.751
0.078546 0.086231 1.7558
0.07866 0.068164 1.758
0.078714 0.043128 1.7594
0.078847 0.024924 1.7636
0.078985 -0.00029438 1.7647
0.07905 -0.018598 1.7666
0.079146 -0.04394 1.769
0.079205 -0.062364 1.7731
0.079332 -0.087856 1.7736
0.079395 -0.10628 1.7754
0.07956 -0.13191 1.778
0.079671 -0.1505 1.7801
0.079773 -0.17625 1.7797
0.079867 -0.19486 1.782
0.080119 -0.22113 1.7848
0.080287 -0.24016 1.7917
0.080321 -0.26599 1.7923
0.080342 -0.28445 1.7912
0.080399 -0.31031 1.7917
0.080528 -0.32956 1.793
0.080738 -0.35586 1.7979
0.081125 -0.37576 1.8065
0.081155 -0.40209 1.8062
0.081446 -0.42256 1.8138
0.081578 -0.44923 1.8137
0.081693 -0.46836 1.817
0.081817 -0.49497 1.8184
0.081987 -0.51457 1.8232
0.082282 -0.54287 1.8238
0.082312 -0.56232 1.8311
0.082384 -0.58871 1.8317
0.082611 -0.60851 1.8336
0.082699 -0.63381 1.8292
0.082671 -0.65369 1.8318
0.082633 -0.67915 1.8295
0.082649 -0.69818 1.8274
0.082651 -0.72346 1.8214
0.015634 0.18194 0.47409
0.015697 0.17506 0.47599
0.015755 0.1706 0.47601
0.015857 0.16583 0.47986
0.0159 0.16101 0.48137
0.016047 0.15586 0.48755
0.016066 0.15109 0.48899
0.016187 0.14557 0.4932
0.016226 0.14087 0.49456
0.016357 0.13534 0.50016
0.016477 0.13055 0.50231
0.016661 0.12477 0.50764
0.016703 0.12057 0.51014
0.016961 0.11454 0.51359
0.017009 0.1101 0.51848
0.017239 0.10374 0.5257
0.01738 0.099454 0.53163
0.01769 0.093035 0.54186
0.018078 0.089261 0.55431
0.018572 0.083392 0.56253
0.019507 0.08212 0.59617
0.021694 0.081934 0.6653
0.054933 0.18938 1.6813
0.056522 0.17045 1.7305
0.056948 0.15377 1.7458
0.057128 0.12932 1.7509
0.05731 0.11127 1.7549
0.057359 0.086356 1.7576
0.057412 0.068306 1.76
0.057485 0.043196 1.7633
0.057626 0.024961 1.7649
0.057683 -0.0002908 1.767
0.057754 -0.018634 1.7703
0.057795 -0.043963 1.7719
0.057841 -0.062435 1.7747
0.05796 -0.087944 1.7753
0.058023 -0.1064 1.7798
0.058147 -0.13202 1.7815
0.058179 -0.15068 1.782
0.058295 -0.17655 1.7845
0.058332 -0.195 1.7858
0.05849 -0.221 1.7884
0.058605 -0.24017 1.7926
0.058618 -0.26595 1.7917
0.058654 -0.28436 1.7906
0.058695 -0.31045 1.7926
0.058845 -0.32972 1.7964
0.05897 -0.35654 1.8009
0.059245 -0.37591 1.8085
0.059338 -0.40292 1.8114
0.059499 -0.42282 1.8146
0.059675 -0.44992 1.818
0.059816 -0.46862 1.819
0.05979 -0.4959 1.8207
0.060004 -0.5163 1.8263
0.060192 -0.54368 1.8274
0.060429 -0.56422 1.8326
0.060516 -0.59016 1.8373
0.060678 -0.60909 1.8367
0.06063 -0.63692 1.8385
0.060646 -0.6561 1.8388
0.060675 -0.68141 1.8357
0.060711 -0.70082 1.8345
0.060738 -0.72556 1.8307
0.010006 0.18439 0.48303
0.009993 0.17649 0.47646
0.0099926 0.17196 0.47775
0.010092 0.1667 0.48323
0.010116 0.16216 0.48475
0.010169 0.15659 0.49073
0.010192 0.15203 0.49218
0.010254 0.14662 0.49477
0.010276 0.14189 0.49838
0.010418 0.13592 0.50254
0.010487 0.13125 0.50406
0.010567 0.12559 0.5101
0.010669 0.1213 0.51216
0.010704 0.11576 0.52002
0.010826 0.11082 0.52439
0.010997 0.10504 0.53702
0.011073 0.10014 0.53884
0.011221 0.094182 0.55161
0.011564 0.090896 0.56125
0.01198 0.085658 0.57653
0.013028 0.087265 0.63433
0.022042 0.13197 1.0747
0.035377 0.19415 1.7213
0.035815 0.17171 1.7424
0.035919 0.15423 1.7485
0.036033 0.12948 1.7542
0.03607 0.11142 1.7567
0.036103 0.086477 1.7608
0.036155 0.068378 1.7626
0.036242 0.043248 1.7653
0.036288 0.024986 1.7669
0.036335 -0.00028886 1.7709
0.036362 -0.018637 1.7729
0.036402 -0.044024 1.7751
0.036479 -0.06254 1.7769
0.036474 -0.08798 1.7791
0.036559 -0.10646 1.7805
0.036598 -0.1321 1.7827
0.036688 -0.15089 1.7832
0.036702 -0.17667 1.7853
0.036752 -0.19531 1.7863
0.036825 -0.22122 1.7899
0.036902 -0.23996 1.7897
0.036907 -0.2655 1.7923
0.03692 -0.28461 1.791
0.036915 -0.31053 1.7931
0.03713 -0.33009 1.7969
0.037207 -0.35663 1.8036
0.037344 -0.37631 1.8091
0.037412 -0.40307 1.812
0.03753 -0.42314 1.8179
0.037654 -0.45029 1.8199
0.037751 -0.46949 1.8213
0.037769 -0.49654 1.8277
0.037972 -0.51724 1.8277
0.03802 -0.54386 1.8348
0.038225 -0.56466 1.8388
0.038294 -0.59104 1.8409
0.038355 -0.61132 1.8416
0.038404 -0.63796 1.8428
0.038507 -0.65773 1.8435
0.03844 -0.68391 1.8417
0.038532 -0.70276 1.8401
0.038395 -0.7283 1.8373
0.0042271 0.18497 0.47955
0.0042106 0.17838 0.4816
0.0042093 0.17329 0.48103
0.0042251 0.16765 0.48637
0.00424 0.16289 0.4888
0.0042602 0.15773 0.49106
0.004264 0.15311 0.49269
0.0043137 0.14691 0.49792
0.0043193 0.14235 0.4993
0.0043673 0.13722 0.50566
0.004373 0.13287 0.50957
0.0044449 0.1268 0.51147
0.0044611 0.12309 0.52207
0.0045057 0.11657 0.52414
0.0045172 0.11184 0.52964
0.004597 0.10659 0.53897
0.0046213 0.1014 0.54586
0.0047463 0.096157 0.55712
0.0048696 0.092714 0.57343
0.0050423 0.088322 0.60015
0.0071652 0.11594 0.8439
0.014079 0.20498 1.667
0.014707 0.19636 1.74
0.014752 0.1723 1.7503
0.014796 0.15441 1.7535
0.014818 0.12964 1.7567
0.014827 0.11164 1.7606
0.014861 0.086597 1.7621
0.014869 0.068534 1.7648
0.014893 0.043343 1.7668
0.014907 0.025046 1.7711
0.01492 -0.00028751 1.773
0.014956 -0.018662 1.7742
0.014969 -0.044114 1.7762
0.014991 -0.062613 1.7791
0.015009 -0.088086 1.7817
0.015034 -0.10667 1.7825
0.01507 -0.13245 1.7834
0.015073 -0.15101 1.7858
0.015087 -0.17693 1.7882
0.015115 -0.1954 1.7886
0.01515 -0.22103 1.7902
0.01518 -0.23996 1.7889
0.015198 -0.26544 1.7916
0.015212 -0.28423 1.7913
0.015219 -0.31053 1.7934
0.015319 -0.33013 1.7972
0.015374 -0.35672 1.8039
0.015429 -0.37635 1.8107
0.015474 -0.40334 1.8123
0.015543 -0.42321 1.8154
0.015603 -0.45034 1.8205
0.015659 -0.46971 1.8216
0.015706 -0.4966 1.8284
0.015815 -0.51758 1.8301
0.015854 -0.54453 1.8366
0.015925 -0.56629 1.8418
0.015979 -0.59229 1.8454
0.016033 -0.61226 1.8486
0.016081 -0.63974 1.8483
0.016142 -0.65975 1.8502
0.016184 -0.6851 1.8443
0.016196 -0.7053 1.8465
0.016167 -0.72917 1.8411
-0.001624 0.18664 0.48599
-0.0016353 0.17893 0.48497
-0.001639 0.17397 0.48592
-0.0016683 0.16882 0.49073
-0.0016761 0.16406 0.48963
-0.0017091 0.15844 0.49575
-0.0017251 0.15339 0.49714
-0.0017438 0.1487 0.50064
-0.001765 0.14418 0.50287
-0.0017879 0.13825 0.51021
-0.0018231 0.13369 0.51172
-0.0018588 0.1288 0.5213
-0.0018723 0.12388 0.52497
-0.0019009 0.11759 0.53633
-0.0019441 0.11406 0.53992
-0.0019586 0.10717 0.5493
-0.0020031 0.10289 0.55201
-0.0020592 0.098462 0.56911
-0.0021474 0.096551 0.5965
-0.0024057 0.097583 0.66126
-0.0058299 0.22026 1.6043
-0.0062885 0.21268 1.7251
-0.0063759 0.19711 1.7473
-0.0064166 0.17269 1.7559
-0.0064385 0.15471 1.7583
-0.0064576 0.12992 1.7604
-0.0064723 0.11185 1.7624
-0.0064893 0.08678 1.7644
-0.0065031 0.06862 1.7669
-0.0065142 0.043378 1.7714
-0.0065262 0.025089 1.7733
-0.0065398 -0.00028797 1.7745
-0.0065438 -0.018697 1.7777
-0.0065501 -0.044151 1.7797
-0.0065587 -0.062679 1.7815
-0.006553 -0.088242 1.783
-0.0065623 -0.10679 1.7848
-0.0065573 -0.13247 1.7862
-0.0065539 -0.15128 1.7899
-0.0065537 -0.17697 1.7899
-0.0065448 -0.19545 1.7899
-0.0065305 -0.22124 1.7902
-0.0065305 -0.23994 1.79
-0.0065127 -0.26568 1.7917
-0.0065012 -0.28437 1.7916
-0.0064763 -0.31052 1.7955
-0.0064891 -0.32972 1.798
-0.0064866 -0.35699 1.8041
-0.0064896 -0.37635 1.8108
-0.0064668 -0.40333 1.8112
-0.0064672 -0.42329 1.8163
-0.0064509 -0.45033 1.8211
-0.0064435 -0.4697 1.8264
-0.0064319 -0.49702 1.829
-0.0064289 -0.51917 1.8352
-0.0063981 -0.54695 1.8371
-0.0063932 -0.56671 1.8425
-0.0063615 -0.59401 1.8482
-0.0063478 -0.61414 1.8513
-0.0063121 -0.6413 1.8494
-0.0062901 -0.66136 1.8513
-0.0062359 -0.68756 1.8504
-0.0061971 -0.70609 1.8501
-0.0061333 -0.73026 1.8477
-0.0075536 0.18706 0.48613
-0.0075429 0.18041 0.48823
-0.0075728 0.17531 0.48899
-0.0076388 0.16972 0.49245
-0.0076794 0.16479 0.494
-0.00776 0.16007 0.50034
-0.0077909 0.15552 0.49861
-0.0078805 0.14946 0.50381
-0.0079396 0.14497 0.50848
-0.0080447 0.13962 0.51398
-0.0081647 0.13558 0.51904
-0.0083301 0.13024 0.52728
-0.0084324 0.12684 0.53704
-0.0085547 0.12125 0.54521
-0.0085889 0.11588 0.54638
-0.0087303 0.10939 0.55463
-0.0088945 0.10507 0.56731
-0.0093152 0.10252 0.59543
-0.010269 0.1056 0.65045
-0.020168 0.18957 1.2859
-0.027066 0.23656 1.7213
-0.027479 0.21497 1.747
-0.02761 0.19754 1.7545
-0.027701 0.17302 1.7592
-0.027737 0.155 1.7616
-0.027788 0.13 1.7632
-0.02784 0.11191 1.7648
-0.027903 0.086931 1.7683
-0.02794 0.068687 1.7704
-0.027978 0.043445 1.7737
-0.028036 0.025108 1.7746
-0.028053 -0.00028928 1.7776
-0.028089 -0.018716 1.7812
-0.028123 -0.044259 1.7819
-0.028139 -0.062759 1.7844
-0.02816 -0.088338 1.7853
-0.02819 -0.10697 1.7886
-0.028199 -0.13263 1.7885
-0.028218 -0.15134 1.7906
-0.028242 -0.177 1.7905
-0.028228 -0.19562 1.791
-0.028221 -0.22101 1.79
-0.028235 -0.23991 1.7907
-0.028214 -0.2657 1.7915
-0.028222 -0.28457 1.7932
-0.028243 -0.31037 1.7953
-0.028275 -0.32967 1.8005
-0.028341 -0.35707 1.8042
-0.02842 -0.37718 1.8106
-0.028407 -0.40333 1.8122
-0.028483 -0.42387 1.8161
-0.028522 -0.45 1.8225
-0.028585 -0.47031 1.8291
-0.028609 -0.49812 1.8353
-0.028686 -0.51965 1.8392
-0.028758 -0.54705 1.8424
-0.028798 -0.5686 1.8484
-0.028823 -0.59519 1.8505
-0.028803 -0.61543 1.8517
-0.028843 -0.64187 1.8556
-0.02885 -0.66223 1.8552
-0.028755 -0.68816 1.8552
-0.028712 -0.70705 1.8531
-0.028546 -0.73211 1.8444
-0.013578 0.18812 0.49082
-0.013572 0.18198 0.49152
-0.013538 0.17601 0.49288
-0.013778 0.17113 0.49706
-0.01383 0.16653 0.49896
-0.013917 0.16076 0.50133
-0.013984 0.15603 0.50449
-0.014116 0.15063 0.50842
-0.014213 0.14646 0.51197
-0.014509 0.14144 0.52142
-0.01471 0.13735 0.52536
-0.015017 0.13319 0.5363
-0.015101 0.12869 0.54339
-0.015316 0.12227 0.54997
-0.015406 0.11815 0.55719
-0.015763 0.11199 0.5664
-0.016519 0.11075 0.58939
-0.018346 0.11335 0.65848
-0.033745 0.19708 1.2156
-0.047757 0.25378 1.7172
-0.048489 0.23953 1.7425
-0.048767 0.21541 1.7519
-0.048957 0.19794 1.759
-0.049046 0.17345 1.7617
-0.049115 0.15537 1.7633
-0.049254 0.13031 1.767
-0.049297 0.1122 1.7682
-0.049355 0.087049 1.7706
-0.049406 0.068764 1.7725
-0.049438 0.043524 1.7777
-0.049586 0.02514 1.7785
-0.049609 -0.00029151 1.7806
-0.049722 -0.018756 1.7839
-0.049743 -0.044314 1.7845
-0.049773 -0.062829 1.7859
-0.049829 -0.088498 1.787
-0.049902 -0.10705 1.7933
-0.049896 -0.13282 1.7916
-0.049982 -0.15165 1.7921
-0.049932 -0.17721 1.7924
-0.049892 -0.19565 1.7906
-0.049895 -0.22109 1.7895
-0.04999 -0.23999 1.7902
-0.049931 -0.26605 1.7919
-0.049989 -0.28474 1.7948
-0.050029 -0.311 1.7948
-0.050079 -0.3303 1.8008
-0.050181 -0.3571 1.8063
-0.050362 -0.37743 1.8114
-0.050423 -0.40436 1.8122
-0.050562 -0.42328 1.819
-0.050698 -0.45061 1.8231
-0.050742 -0.47182 1.8297
-0.050893 -0.4981 1.8349
-0.051108 -0.51999 1.8402
-0.051161 -0.54709 1.8423
-0.051343 -0.56886 1.8516
-0.051313 -0.59561 1.8533
-0.051415 -0.61602 1.8587
-0.051374 -0.64218 1.8578
-0.051508 -0.66386 1.86
-0.051355 -0.68865 1.8574
-0.051226 -0.70828 1.853
-0.051099 -0.73381 1.857
-0.019999 0.19009 0.49474
-0.019842 0.18348 0.49707
-0.01988 0.1787 0.49811
-0.019985 0.1727 0.50288
-0.019988 0.16806 0.50071
-0.020154 0.16235 0.5096
-0.020329 0.15834 0.51138
-0.020566 0.15186 0.51505
-0.020747 0.14822 0.51931
-0.021074 0.14285 0.52382
-0.021313 0.13938 0.53237
-0.021704 0.13459 0.54276
-0.021835 0.12934 0.54782
-0.022476 0.12443 0.56184
-0.022769 0.12024 0.56953
-0.023678 0.11715 0.59353
-0.026199 0.12287 0.6591
-0.050928 0.22015 1.2801
-0.068107 0.27722 1.7092
-0.069519 0.25746 1.7412
-0.070024 0.24099 1.7547
-0.070255 0.21645 1.759
-0.070481 0.19868 1.7623
-0.070603 0.17392 1.7664
-0.070663 0.15579 1.7681
-0.070748 0.13064 1.7701
-0.070818 0.11239 1.7736
-0.070876 0.087253 1.7757
-0.071012 0.068973 1.7774
-0.071052 0.043583 1.7782
-0.071132 0.02517 1.7806
-0.071229 -0.00029549 1.7834
-0.071402 -0.018785 1.7857
-0.071431 -0.044331 1.7861
-0.071484 -0.062969 1.7895
-0.071529 -0.088526 1.7902
-0.071619 -0.10722 1.7926
-0.071661 -0.13308 1.7924
-0.071683 -0.15167 1.7926
-0.071613 -0.17718 1.7917
-0.071555 -0.19557 1.7901
-0.071562 -0.221 1.7894
-0.071687 -0.24008 1.7923
-0.071718 -0.26626 1.7939
-0.071719 -0.2851 1.7974
-0.071907 -0.31134 1.7991
-0.072038 -0.33076 1.8018
-0.072109 -0.35772 1.8056
-0.072318 -0.37735 1.8113
-0.072363 -0.40438 1.8137
-0.072714 -0.42417 1.8188
-0.072893 -0.45041 1.8247
-0.073069 -0.47169 1.8323
-0.073193 -0.4997 1.8348
-0.073471 -0.52136 1.8472
-0.073496 -0.54816 1.8444
-0.073876 -0.57021 1.8537
-0.073928 -0.59586 1.8573
-0.074068 -0.61749 1.8599
-0.074006 -0.64316 1.861
-0.074148 -0.66423 1.8649
-0.073956 -0.69065 1.8587
-0.073837 -0.70963 1.8587
-0.073721 -0.73282 1.8533
-0.026099 0.19359 0.50434
-0.026236 0.18639 0.50671
-0.026297 0.18019 0.50345
-0.026355 0.17534 0.51155
-0.026331 0.17037 0.50923
-0.026576 0.16426 0.51604
-0.02689 0.15983 0.51756
-0.027037 0.15531 0.5219
-0.027381 0.14974 0.52661
-0.027903 0.14547 0.53074
-0.028172 0.14193 0.54064
-0.028916 0.13713 0.5547
-0.0292 0.13208 0.56224
-0.029611 0.12788 0.57819
-0.031595 0.12801 0.6073
-0.034366 0.13033 0.65867
-0.06855 0.24633 1.3199
-0.088804 0.29462 1.709
-0.090749 0.2821 1.7444
-0.091258 0.25903 1.76
-0.091628 0.242 1.7625
-0.091842 0.21733 1.7653
-0.092018 0.19931 1.7674
-0.092174 0.17431 1.7703
-0.092274 0.15616 1.772
-0.09233 0.13105 1.7741
-0.092478 0.11275 1.775
-0.092492 0.087407 1.7764
-0.092614 0.069025 1.7777
-0.092685 0.043597 1.7815
-0.092834 0.02519 1.7847
-0.092955 -0.00030058 1.7853
-0.093036 -0.018804 1.7878
-0.093156 -0.044421 1.7887
-0.093274 -0.063007 1.7914
-0.093288 -0.088658 1.7926
-0.093448 -0.10746 1.7931
-0.093405 -0.1331 1.7931
-0.093367 -0.15176 1.7935
-0.093265 -0.17723 1.7912
-0.093291 -0.19562 1.7918
-0.093227 -0.2211 1.7907
-0.093396 -0.24025 1.7927
-0.093402 -0.26612 1.7929
-0.093594 -0.28559 1.7989
-0.093694 -0.31125 1.801
-0.093974 -0.33059 1.8044
-0.093932 -0.35778 1.8086
-0.094454 -0.37741 1.8169
-0.094556 -0.40459 1.8166
-0.0948 -0.42502 1.8224
-0.095059 -0.45153 1.831
-0.09548 -0.47299 1.8326
-0.095577 -0.49989 1.8373
-0.096171 -0.52188 1.8472
-0.096097 -0.54931 1.8501
-0.096574 -0.57109 1.8574
-0.096566 -0.59776 1.8569
-0.096732 -0.61734 1.8645
-0.096779 -0.64468 1.861
-0.096714 -0.66487 1.8655
-0.096639 -0.69042 1.864
-0.096531 -0.70941 1.8588
-0.096116 -0.73448 1.8566
-0.032677 0.19694 0.51213
-0.032845 0.18943 0.51437
-0.032724 0.18381 0.5139
-0.032993 0.17776 0.51678
-0.033106 0.17253 0.5178
-0.033558 0.16696 0.52058
-0.033667 0.1625 0.52506
-0.034106 0.15717 0.53143
-0.034511 0.15314 0.53672
-0.034931 0.14774 0.54149
-0.03586 0.14449 0.55373
-0.036108 0.13878 0.56648
-0.037863 0.14005 0.59217
-0.039506 0.13675 0.6163
-0.049192 0.162 0.76791
-0.089375 0.27469 1.3916
-0.10946 0.31868 1.7052
-0.11175 0.29989 1.7448
-0.11251 0.28432 1.7575
-0.11291 0.26025 1.7616
-0.11322 0.24252 1.7648
-0.11362 0.21799 1.7695
-0.11373 0.19991 1.7716
-0.11392 0.17482 1.7742
-0.11396 0.15659 1.7759
-0.1141 0.13129 1.7776
-0.11413 0.11295 1.7788
-0.11424 0.087549 1.78
-0.1143 0.069135 1.7808
-0.1145 0.04368 1.7835
-0.11466 0.025243 1.7865
-0.11476 -0.00030675 1.7876
-0.11485 -0.018834 1.79
-0.11483 -0.044462 1.7907
-0.11509 -0.063076 1.7924
-0.11514 -0.088845 1.7929
-0.11513 -0.10745 1.7957
-0.11525 -0.1332 1.795
-0.11517 -0.15173 1.7953
-0.11501 -0.17717 1.793
-0.11501 -0.19571 1.7912
-0.1149 -0.22135 1.7932
-0.11516 -0.24056 1.7934
-0.11525 -0.26661 1.7965
-0.11538 -0.28552 1.8
-0.11572 -0.31149 1.8031
-0.11584 -0.33136 1.8072
-0.11611 -0.35777 1.8108
-0.11655 -0.3774 1.8169
-0.11663 -0.4054 1.8195
-0.11694 -0.42597 1.8246
-0.11732 -0.45215 1.831
-0.1177 -0.47291 1.8364
-0.11787 -0.50177 1.8433
-0.11861 -0.52205 1.8489
-0.11875 -0.55073 1.854
-0.11919 -0.57084 1.8565
-0.11936 -0.59788 1.8632
-0.11957 -0.6191 1.8668
-0.11949 -0.64561 1.865
-0.11944 -0.66502 1.8675
-0.11934 -0.69127 1.863
-0.11914 -0.71056 1.8627
-0.11896 -0.7351 1.8565
-0.039891 0.20122 0.52486
-0.039795 0.19371 0.52613
-0.039838 0.18814 0.52381
-0.040129 0.18223 0.53022
-0.040473 0.17738 0.5305
-0.040663 0.171 0.53768
-0.041378 0.16826 0.54033
-0.041742 0.16115 0.54726
-0.04261 0.15809 0.5568
-0.043109 0.1535 0.56714
-0.044717 0.15333 0.58653
-0.045958 0.14935 0.60414
-0.051599 0.15971 0.67831
-0.072528 0.21074 0.95568
-0.12742 0.3529 1.6717
-0.13108 0.33859 1.7187
-0.13277 0.32513 1.7433
-0.13401 0.30317 1.7598
-0.13444 0.28571 1.7628
-0.13477 0.26111 1.7696
-0.13498 0.24315 1.7722
-0.13515 0.21846 1.7744
-0.13533 0.20019 1.7766
-0.13571 0.1752 1.7795
-0.13585 0.15685 1.7812
-0.13587 0.13159 1.7841
-0.13598 0.11321 1.7843
-0.1361 0.087765 1.7848
-0.13623 0.069305 1.7856
-0.13624 0.04378 1.7881
-0.13637 0.02528 1.7885
-0.13638 -0.00031436 1.7887
-0.13645 -0.018883 1.7923
-0.13687 -0.044561 1.7949
-0.13691 -0.063152 1.7957
-0.1371 -0.089078 1.7969
-0.13723 -0.10776 1.7994
-0.1371 -0.1334 1.7983
-0.13691 -0.15184 1.7968
-0.13678 -0.17732 1.7945
-0.13668 -0.19584 1.7932
-0.13692 -0.22174 1.7923
-0.13679 -0.24061 1.7933
-0.13711 -0.26661 1.7971
-0.13766 -0.2856 1.8026
-0.13752 -0.31247 1.8061
-0.13801 -0.33153 1.8073
-0.13815 -0.3582 1.8101
-0.13866 -0.3782 1.8224
-0.13888 -0.4059 1.8224
-0.13942 -0.42601 1.83
-0.13953 -0.45394 1.8312
-0.14023 -0.47314 1.8349
-0.14069 -0.50166 1.8421
-0.14102 -0.52242 1.8535
-0.14116 -0.55099 1.855
-0.14184 -0.57131 1.8611
-0.14204 -0.59965 1.8635
-0.14228 -0.61971 1.8653
-0.14235 -0.64637 1.8669
-0.14232 -0.66604 1.8699
-0.14212 -0.69202 1.8668
-0.14206 -0.71128 1.8641
-0.14141 -0.73551 1.8638
-0.047819 0.20781 0.54566
-0.047959 0.20073 0.54175
-0.047529 0.19304 0.54354
-0.048187 0.18882 0.54606
-0.048277 0.18365 0.5498
-0.048566 0.17674 0.55225
-0.04999 0.17566 0.56764
-0.051224 0.17165 0.58151
-0.052184 0.1692 0.59636
-0.053115 0.16251 0.60051
-0.057986 0.17152 0.65703
-0.075225 0.21032 0.85504
-0.13591 0.36326 1.5422
-0.15071 0.37904 1.7083
-0.15292 0.36591 1.7336
-0.15467 0.34545 1.7533
-0.15557 0.32851 1.7636
-0.15598 0.30484 1.7705
-0.15617 0.28703 1.7712
-0.15648 0.262 1.7745
-0.15672 0.24375 1.7764
-0.15703 0.2188 1.7784
-0.15718 0.20067 1.7803
-0.1574 0.17549 1.7819
-0.15755 0.15699 1.7836
-0.15754 0.13166 1.7863
-0.15788 0.11332 1.7897
-0.15782 0.087869 1.7911
-0.1581 0.069385 1.7893
-0.15801 0.043824 1.7901
-0.15832 0.025297 1.7917
-0.15845 -0.0003232 1.7932
-0.15853 -0.018919 1.795
-0.1585 -0.044629 1.7961
-0.15906 -0.063356 1.7997
-0.15904 -0.089102 1.8017
-0.15919 -0.10785 1.8013
-0.15904 -0.13351 1.7996
-0.15891 -0.15205 1.7974
-0.15839 -0.17748 1.7933
-0.15856 -0.19604 1.794
-0.15851 -0.22191 1.7937
-0.15868 -0.24088 1.7984
-0.15918 -0.26637 1.7988
-0.15944 -0.28632 1.8041
-0.15966 -0.31226 1.8051
-0.15995 -0.33183 1.8087
-0.16032 -0.35865 1.8144
-0.16082 -0.37856 1.8208
-0.16125 -0.40602 1.8244
-0.16174 -0.42646 1.8303
-0.16227 -0.4545 1.8343
-0.16281 -0.47415 1.8418
-0.1633 -0.5033 1.8468
-0.16359 -0.52279 1.8555
-0.16414 -0.55201 1.8604
-0.16436 -0.57396 1.8622
-0.16486 -0.60026 1.8685
-0.16495 -0.62027 1.8695
-0.16489 -0.6476 1.8707
-0.16523 -0.66605 1.8723
-0.16506 -0.69309 1.8689
-0.16463 -0.71192 1.8643
-0.16414 -0.73647 1.8599
-0.057558 0.22213 0.58133
-0.057599 0.2129 0.57488
-0.057432 0.20625 0.5756
-0.058074 0.20027 0.57932
-0.059688 0.19837 0.59525
-0.06024 0.19198 0.60233
-0.062778 0.19292 0.62578
-0.066087 0.19488 0.66077
-0.077103 0.21924 0.76895
-0.098763 0.26693 0.98361
-0.15791 0.41116 1.5769
-0.17162 0.42021 1.7126
-0.17451 0.40963 1.7424
-0.17557 0.38801 1.7498
-0.17612 0.3707 1.7535
-0.17677 0.3475 1.767
-0.17713 0.32989 1.7683
-0.17799 0.30555 1.7727
-0.17779 0.2874 1.7749
-0.17808 0.26251 1.7761
-0.17836 0.2442 1.7782
-0.17879 0.2192 1.7819
-0.17903 0.20101 1.7826
-0.17931 0.17559 1.7891
-0.17946 0.15728 1.786
-0.17979 0.13191 1.7905
-0.17987 0.11352 1.7917
-0.18003 0.088005 1.7931
-0.17976 0.069405 1.7946
-0.17985 0.043829 1.7948
-0.18008 0.025306 1.796
-0.18011 -0.00033312 1.7963
-0.18054 -0.018937 1.7974
-0.18075 -0.044698 1.7998
-0.18088 -0.063382 1.8016
-0.181 -0.089184 1.8009
-0.18109 -0.10791 1.8041
-0.18092 -0.13365 1.8024
-0.18078 -0.15208 1.7989
-0.18031 -0.1776 1.7941
-0.18034 -0.19619 1.7948
-0.18027 -0.22189 1.7946
-0.1805 -0.24074 1.7973
-0.18091 -0.26679 1.802
-0.18144 -0.28607 1.8071
-0.18157 -0.31317 1.81
-0.18211 -0.33225 1.813
-0.18268 -0.35914 1.8187
-0.18282 -0.37941 1.8227
-0.18333 -0.40646 1.8244
-0.18392 -0.42652 1.8366
-0.18446 -0.45486 1.8386
-0.18551 -0.47583 1.8429
-0.18572 -0.50393 1.8533
-0.18678 -0.52466 1.8583
-0.18655 -0.55188 1.8621
-0.18706 -0.5736 1.8656
-0.18777 -0.60091 1.8677
-0.18752 -0.62147 1.872
-0.18817 -0.64798 1.875
-0.18842 -0.66771 1.8718
-0.18761 -0.69414 1.868
-0.18735 -0.71347 1.8688
-0.18727 -0.73807 1.8653
-0.077522 0.26462 0.6866
-0.07777 0.25591 0.6898
-0.077421 0.24782 0.69134
-0.078407 0.24072 0.69771
-0.084906 0.25158 0.75842
-0.096524 0.27323 0.85282
-0.13628 0.37623 1.2138
-0.16667 0.43933 1.494
-0.19349 0.48896 1.7199
-0.19442 0.46875 1.7338
-0.19634 0.45545 1.7531
-0.19769 0.43212 1.759
-0.19818 0.41553 1.7669
-0.19941 0.39302 1.7767
-0.19904 0.37382 1.7703
-0.19963 0.34952 1.7752
-0.19947 0.33071 1.7734
-0.2 0.30634 1.7785
-0.19997 0.28804 1.7788
-0.20037 0.26315 1.7832
-0.20046 0.24486 1.7852
-0.20085 0.21955 1.7859
-0.20107 0.20133 1.7878
-0.20128 0.17604 1.7901
-0.20149 0.15776 1.7921
-0.2017 0.13224 1.7938
-0.20164 0.1137 1.7959
-0.20178 0.088065 1.7959
-0.20193 0.069488 1.7964
-0.2021 0.043877 1.7949
-0.20216 0.025313 1.7976
-0.20226 -0.00034423 1.798
-0.20234 -0.018975 1.7999
-0.20269 -0.044757 1.802
-0.20275 -0.063474 1.8037
-0.20284 -0.089251 1.8045
-0.20312 -0.10805 1.8044
-0.20293 -0.13375 1.8027
-0.20261 -0.15212 1.8012
-0.20229 -0.17761 1.7961
-0.20214 -0.19624 1.7952
-0.2022 -0.2221 1.7969
-0.20259 -0.24114 1.8007
-0.20309 -0.26715 1.8012
-0.20355 -0.2869 1.8094
-0.20396 -0.3129 1.8096
-0.20484 -0.33352 1.8182
-0.20499 -0.36023 1.8203
-0.20547 -0.38046 1.8227
-0.20588 -0.40693 1.8299
-0.20663 -0.42811 1.8356
-0.2073 -0.45599 1.8402
-0.2081 -0.47604 1.8505
-0.20851 -0.50379 1.8568
-0.20937 -0.52553 1.8645
-0.20936 -0.55214 1.8608
-0.21021 -0.57347 1.8704
-0.21041 -0.60099 1.8711
-0.21106 -0.62196 1.8724
-0.21065 -0.6493 1.8733
-0.21096 -0.66861 1.8703
-0.21047 -0.69343 1.8731
-0.21051 -0.71382 1.8722
-0.20942 -0.73828 1.8682
-0.20509 0.63434 1.6468
-0.2061 0.6136 1.6544
-0.20921 0.60485 1.6883
-0.21237 0.59087 1.7125
-0.21569 0.58087 1.7362
-0.21689 0.55851 1.7477
-0.21756 0.54207 1.7524
-0.21891 0.51939 1.7601
-0.21964 0.50289 1.7649
-0.22049 0.47947 1.7749
-0.22073 0.46152 1.7794
-0.22112 0.43749 1.7778
-0.22102 0.41956 1.78
-0.22174 0.39535 1.7854
-0.22162 0.3755 1.7812
-0.22136 0.3505 1.7831
-0.22148 0.33193 1.7796
-0.22217 0.30734 1.7865
-0.2224 0.28844 1.784
-0.22216 0.26356 1.7893
-0.2225 0.24513 1.7919
-0.22291 0.21984 1.7877
-0.22319 0.2015 1.7898
-0.22299 0.17622 1.7934
-0.22321 0.15783 1.7951
-0.22376 0.13225 1.7944
-0.22393 0.11377 1.7956
-0.22358 0.08823 1.7959
-0.22369 0.069663 1.7969
-0.22381 0.043951 1.7977
-0.22435 0.025349 1.7989
-0.22418 -0.00035656 1.8
-0.22457 -0.019004 1.8006
-0.22464 -0.044822 1.8041
-0.22474 -0.063551 1.805
-0.22488 -0.089509 1.8045
-0.22548 -0.10833 1.8076
-0.22517 -0.13396 1.8037
-0.22465 -0.15244 1.8015
-0.22403 -0.17794 1.7985
-0.22398 -0.19649 1.7973
-0.22433 -0.22248 1.7996
-0.22469 -0.24125 1.8008
-0.2247 -0.26756 1.8045
-0.22596 -0.28717 1.8112
-0.2264 -0.31464 1.8156
-0.22728 -0.33433 1.8182
-0.2274 -0.3608 1.8235
-0.22831 -0.38039 1.8256
-0.22829 -0.40772 1.83
-0.2295 -0.42894 1.84
-0.23007 -0.45558 1.8437
-0.23112 -0.47739 1.8513
-0.2313 -0.50512 1.8544
-0.23192 -0.52572 1.8647
-0.23306 -0.5538 1.8617
-0.23307 -0.57558 1.8729
-0.23276 -0.60183 1.8733
-0.23375 -0.6219 1.8779
-0.23352 -0.6498 1.8739
-0.23394 -0.66821 1.8793
-0.23371 -0.69362 1.8735
-0.23303 -0.71377 1.8749
-0.23282 -0.73926 1.8718
-0.24516 0.69158 1.8089
-0.24446 0.66366 1.8004
-0.24454 0.64345 1.8016
-0.24418 0.6159 1.7965
-0.2436 0.59535 1.7914
-0.24356 0.57197 1.7895
-0.24338 0.5523 1.7894
-0.24427 0.52822 1.787
-0.24383 0.5089 1.7864
-0.24385 0.48441 1.786
-0.24401 0.46497 1.7887
-0.24371 0.44003 1.7891
-0.24394 0.42089 1.7855
-0.24419 0.39642 1.7909
-0.24398 0.37711 1.7895
-0.24379 0.35165 1.7897
-0.24296 0.33221 1.7847
-0.24367 0.30754 1.789
-0.24392 0.28891 1.7883
-0.24434 0.26381 1.7884
-0.24453 0.24548 1.7909
-0.24482 0.22022 1.7939
-0.24513 0.20189 1.7933
-0.24552 0.17655 1.7959
-0.24541 0.15813 1.797
-0.24571 0.13238 1.7979
-0.24587 0.11387 1.7986
-0.24608 0.088265 1.8006
-0.24621 0.069642 1.8008
-0.24622 0.043966 1.802
-0.24628 0.025372 1.8024
-0.24655 -0.00037052 1.8031
-0.24664 -0.019049 1.8036
-0.24677 -0.044923 1.8035
-0.24722 -0.06366 1.8081
-0.24724 -0.089533 1.8082
-0.24712 -0.10835 1.8075
-0.24689 -0.13411 1.8058
-0.24655 -0.15255 1.8021
-0.24619 -0.17789 1.7998
-0.24637 -0.19675 1.8005
-0.24672 -0.22255 1.7987
-0.2465 -0.24161 1.8053
-0.24747 -0.26789 1.8091
-0.24845 -0.28806 1.8133
-0.24845 -0.31468 1.8166
-0.24915 -0.33478 1.8233
-0.25008 -0.36142 1.8261
-0.25031 -0.38103 1.8287
-0.25128 -0.40872 1.8378
-0.25156 -0.42881 1.8452
-0.25254 -0.45681 1.8491
-0.25386 -0.47767 1.8523
-0.25366 -0.50534 1.8616
-0.25486 -0.52578 1.8655
-0.25535 -0.55365 1.8661
-0.25607 -0.57519 1.8721
-0.25598 -0.60263 1.8717
-0.25612 -0.62261 1.8794
-0.25649 -0.6492 1.8797
-0.25715 -0.66879 1.8791
-0.25622 -0.69553 1.8756
-0.25637 -0.71483 1.8736
-0.25555 -0.74102 1.8713
-0.26932 0.69907 1.8151
-0.26967 0.6707 1.8146
-0.26862 0.65031 1.8115
-0.26782 0.62318 1.8115
-0.26786 0.60151 1.8065
-0.2668 0.57595 1.7996
-0.2673 0.55533 1.8003
-0.26723 0.53113 1.799
-0.26636 0.51201 1.7955
-0.26692 0.48555 1.7956
-0.26651 0.46756 1.798
-0.26643 0.44227 1.796
-0.26692 0.42249 1.7931
-0.26622 0.39769 1.7981
-0.26601 0.37808 1.796
-0.26628 0.35192 1.7898
-0.26544 0.33312 1.7902
-0.26626 0.30747 1.7945
-0.26637 0.28939 1.7903
-0.26634 0.26409 1.7909
-0.26658 0.24592 1.7917
-0.26702 0.22074 1.7947
-0.26697 0.20204 1.7956
-0.26744 0.17656 1.7955
-0.26735 0.15814 1.7972
-0.26786 0.1327 1.8012
-0.26806 0.11416 1.8025
-0.2683 0.088486 1.8007
-0.26835 0.069839 1.8011
-0.2684 0.044044 1.8019
-0.26847 0.025365 1.8039
-0.26865 -0.00038506 1.8053
-0.26868 -0.0191 1.8088
-0.26904 -0.044939 1.8087
-0.26945 -0.063701 1.809
-0.26936 -0.089568 1.8111
-0.26946 -0.10832 1.8104
-0.26921 -0.13408 1.8087
-0.26869 -0.15273 1.8033
-0.26823 -0.17836 1.8009
-0.26851 -0.19687 1.7992
-0.26819 -0.22285 1.8046
-0.26931 -0.24204 1.8089
-0.26987 -0.26887 1.8099
-0.27041 -0.28829 1.8142
-0.27122 -0.31492 1.8219
-0.27198 -0.33473 1.8255
-0.27195 -0.36168 1.829
-0.2726 -0.38197 1.8356
-0.27398 -0.40893 1.8381
-0.27437 -0.42928 1.8502
-0.27515 -0.45707 1.8507
-0.27652 -0.47826 1.8637
-0.27702 -0.50613 1.8587
-0.27766 -0.52648 1.8669
-0.2787 -0.55538 1.8656
-0.27921 -0.57553 1.8729
-0.27899 -0.60245 1.8734
-0.27914 -0.62323 1.8781
-0.2792 -0.65036 1.8777
-0.27968 -0.67038 1.8767
-0.27943 -0.69453 1.8735
-0.27932 -0.71643 1.8762
-0.27887 -0.74097 1.8696
-0.29426 0.70304 1.8321
-0.29287 0.67507 1.8225
-0.29213 0.65298 1.8186
-0.29173 0.62685 1.8218
-0.29072 0.60572 1.813
-0.29058 0.5793 1.8155
-0.2901 0.55802 1.8095
-0.2902 0.5327 1.8086
-0.28941 0.51305 1.8009
-0.2894 0.48816 1.803
-0.28888 0.46803 1.8031
-0.28927 0.44293 1.8023
-0.28859 0.42391 1.7971
-0.28944 0.39813 1.8
-0.28798 0.37924 1.7987
-0.28854 0.35331 1.7977
-0.28797 0.33368 1.79
-0.28807 0.30936 1.7962
-0.28831 0.29083 1.7971
-0.28852 0.26482 1.7975
-0.28888 0.24607 1.7968
-0.28869 0.22083 1.8023
-0.28905 0.2025 1.7996
-0.28964 0.17693 1.8
-0.28993 0.15866 1.8017
-0.29013 0.13299 1.8045
-0.29034 0.11445 1.8063
-0.29047 0.088685 1.8072
-0.29062 0.070013 1.808
-0.29052 0.044056 1.8066
-0.29059 0.025391 1.8069
-0.29088 -0.00040177 1.8078
-0.29121 -0.019118 1.8098
-0.29145 -0.045025 1.8108
-0.29169 -0.063801 1.8103
-0.29193 -0.089668 1.8108
-0.2918 -0.10844 1.8143
-0.29154 -0.13422 1.8126
-0.29128 -0.15309 1.8089
-0.29092 -0.17848 1.806
-0.29068 -0.19742 1.8055
-0.29115 -0.22319 1.808
-0.29149 -0.24273 1.809
-0.29195 -0.26889 1.8129
-0.29257 -0.28897 1.8195
-0.29369 -0.3157 1.8246
-0.29407 -0.33525 1.8304
-0.29467 -0.36221 1.8326
-0.2963 -0.38265 1.8389
-0.29635 -0.40973 1.842
-0.29781 -0.43065 1.8487
-0.29836 -0.45738 1.8564
-0.29881 -0.47816 1.8612
-0.3 -0.50734 1.8642
-0.30046 -0.52711 1.869
-0.3014 -0.55521 1.8715
-0.30147 -0.57545 1.8748
-0.30226 -0.60356 1.8757
-0.30171 -0.62247 1.8782
-0.30255 -0.65156 1.8756
-0.30258 -0.66983 1.8783
-0.30201 -0.69703 1.8779
-0.30196 -0.71646 1.8778
-0.30049 -0.74152 1.8738
-0.31622 0.70166 1.8367
-0.31649 0.67695 1.8314
-0.31542 0.65682 1.8253
-0.31529 0.62741 1.8265
-0.31413 0.60882 1.8235
-0.31337 0.5819 1.8221
-0.31281 0.56197 1.8175
-0.31304 0.53428 1.8144
-0.31233 0.51456 1.8059
-0.31199 0.49024 1.8071
-0.31184 0.46978 1.8066
-0.31151 0.44393 1.8059
-0.3114 0.42472 1.8029
-0.31196 0.39951 1.8068
-0.31129 0.37957 1.8003
-0.31055 0.35402 1.7992
-0.31024 0.33472 1.7977
-0.31052 0.30957 1.7977
-0.311 0.29079 1.7979
-0.31081 0.26561 1.8012
-0.31097 0.24684 1.8014
-0.31115 0.22136 1.8046
-0.31122 0.20278 1.8014
-0.31157 0.17724 1.804
-0.31188 0.15858 1.8057
-0.31226 0.13312 1.8072
-0.31286 0.11457 1.8084
-0.3126 0.088801 1.8091
-0.31304 0.070063 1.8096
-0.31283 0.044168 1.8104
-0.3129 0.025448 1.8106
-0.31296 -0.00041932 1.8108
-0.31319 -0.019184 1.8107
-0.31326 -0.045174 1.8121
-0.31384 -0.063956 1.8127
-0.31408 -0.089931 1.8153
-0.31402 -0.10871 1.8143
-0.31374 -0.13462 1.813
-0.31326 -0.1533 1.8102
-0.31288 -0.17902 1.8092
-0.31309 -0.19771 1.808
-0.31353 -0.22376 1.809
-0.3136 -0.24291 1.8129
-0.31444 -0.26984 1.8182
-0.315 -0.28922 1.8231
-0.31559 -0.31578 1.8243
-0.31702 -0.33587 1.8328
-0.31715 -0.36256 1.8355
-0.31853 -0.383 1.84
-0.32004 -0.41022 1.8487
-0.3206 -0.43093 1.8505
-0.3209 -0.45911 1.8564
-0.32256 -0.47864 1.8632
-0.32211 -0.50762 1.8652
-0.32344 -0.52693 1.8738
-0.32373 -0.55612 1.8701
-0.32554 -0.57692 1.8771
-0.32467 -0.60284 1.876
-0.32476 -0.62429 1.8768
-0.32546 -0.65119 1.879
-0.32538 -0.67095 1.8831
-0.32564 -0.69762 1.8809
-0.32456 -0.71614 1.8773
-0.32388 -0.74261 1.8693
-0.33986 0.7036 1.8444
-0.33933 0.67738 1.8417
-0.33837 0.65791 1.8339
-0.338 0.63174 1.833
-0.33708 0.60919 1.8283
-0.33676 0.58409 1.8282
-0.33587 0.56363 1.8191
-0.3359 0.53707 1.821
-0.33546 0.51644 1.816
-0.3348 0.49097 1.8141
-0.33436 0.47161 1.8081
-0.33447 0.4453 1.8109
-0.33426 0.42558 1.8106
-0.334 0.40025 1.8089
-0.33382 0.38086 1.7998
-0.33325 0.35426 1.7995
-0.33222 0.33535 1.7989
-0.3329 0.30985 1.8005
-0.3327 0.29114 1.8018
-0.33309 0.26574 1.8013
-0.33324 0.24713 1.802
-0.33375 0.22181 1.8049
-0.33353 0.20327 1.8047
-0.33405 0.17737 1.8073
-0.33425 0.15882 1.8056
-0.33466 0.13318 1.8076
-0.33483 0.11468 1.81
-0.33511 0.08888 1.8119
-0.33528 0.070159 1.8127
-0.33521 0.044246 1.8134
-0.3351 0.025479 1.8131
-0.33515 -0.00043825 1.8139
-0.33543 -0.019232 1.8142
-0.33591 -0.045192 1.8166
-0.33613 -0.063973 1.8164
-0.33605 -0.089958 1.8168
-0.33622 -0.10881 1.8181
-0.33592 -0.13477 1.8164
-0.33559 -0.15358 1.8112
-0.33518 -0.17934 1.8089
-0.33576 -0.19809 1.8105
-0.33552 -0.22393 1.8124
-0.3362 -0.24343 1.8175
-0.33678 -0.27007 1.8217
-0.33755 -0.28933 1.822
-0.33907 -0.31647 1.8311
-0.33936 -0.33612 1.8328
-0.3403 -0.36381 1.8398
-0.34164 -0.38409 1.8447
-0.34222 -0.4113 1.8497
-0.34251 -0.43193 1.8572
-0.3445 -0.45902 1.8587
-0.34482 -0.48057 1.8644
-0.34586 -0.50667 1.8678
-0.34646 -0.52804 1.8735
-0.34669 -0.55509 1.8707
-0.34811 -0.57672 1.8769
-0.34742 -0.60341 1.8786
-0.34831 -0.62413 1.8817
-0.34854 -0.65093 1.8856
-0.34936 -0.67105 1.8822
-0.34807 -0.69762 1.8802
-0.34757 -0.7161 1.8806
-0.34658 -0.74156 1.8758
-0.36339 0.70798 1.8475
-0.36232 0.67916 1.8425
-0.36135 0.65923 1.8359
-0.36138 0.63133 1.8378
-0.36034 0.61219 1.8349
-0.35991 0.58423 1.8324
-0.35908 0.56322 1.8291
-0.35851 0.53822 1.8251
-0.3578 0.51857 1.824
-0.35796 0.49161 1.819
-0.35722 0.47115 1.8176
-0.35687 0.44627 1.8136
-0.35642 0.42725 1.8112
-0.35712 0.40116 1.8134
-0.35584 0.38151 1.8088
-0.35581 0.3549 1.8067
-0.35494 0.33552 1.8017
-0.35496 0.31028 1.8032
-0.3555 0.29195 1.8052
-0.35615 0.26616 1.8031
-0.35581 0.24771 1.804
-0.35606 0.22184 1.8062
-0.35619 0.20342 1.807
-0.35599 0.17787 1.8096
-0.35634 0.15925 1.8097
-0.3569 0.13322 1.8117
-0.35717 0.11454 1.8078
-0.35767 0.088763 1.816
-0.35785 0.070165 1.8111
-0.35786 0.044264 1.8126
-0.35789 0.025467 1.8129
-0.35764 -0.00045787 1.8132
-0.35763 -0.019263 1.815
-0.35784 -0.045255 1.8163
-0.35807 -0.064071 1.8158
-0.35881 -0.090119 1.8185
-0.35908 -0.10901 1.8183
-0.35903 -0.13497 1.8156
-0.35876 -0.15372 1.8142
-0.35846 -0.1795 1.8131
-0.35817 -0.19821 1.8143
-0.35796 -0.2245 1.8158
-0.35877 -0.24371 1.8207
-0.35949 -0.27023 1.8208
-0.36072 -0.29018 1.8292
-0.3615 -0.31673 1.8309
-0.36198 -0.337 1.8365
-0.36362 -0.36467 1.8425
-0.36436 -0.38404 1.8463
-0.36445 -0.4119 1.8557
-0.3663 -0.43157 1.8554
-0.36696 -0.46041 1.8621
-0.36851 -0.48023 1.8637
-0.36811 -0.50795 1.8744
-0.36924 -0.52898 1.8737
-0.36903 -0.55652 1.8742
-0.37028 -0.57643 1.8779
-0.37076 -0.60417 1.8794
-0.37178 -0.62502 1.8834
-0.37193 -0.65183 1.8839
-0.37186 -0.67226 1.8835
-0.37055 -0.69755 1.8832
-0.37052 -0.71658 1.8813
-0.36893 -0.73978 1.8762
-0.38617 0.70962 1.8507
-0.38511 0.68225 1.8453
-0.38494 0.65989 1.8442
-0.38457 0.63439 1.8395
-0.38395 0.61151 1.8395
-0.38296 0.58694 1.8389
-0.38218 0.56572 1.8334
-0.38182 0.54099 1.8323
-0.38072 0.51958 1.8232
-0.38061 0.49397 1.8262
-0.38016 0.47294 1.8198
-0.37997 0.44693 1.8199
-0.37952 0.42751 1.8213
-0.37962 0.40195 1.8171
-0.37896 0.38162 1.8119
-0.37911 0.35567 1.8099
-0.37748 0.33609 1.806
-0.37806 0.31106 1.809
-0.378 0.29232 1.8085
-0.37753 0.26693 1.8089
-0.37796 0.2485 1.8085
-0.37852 0.22241 1.8095
-0.37787 0.20365 1.8093
-0.37827 0.17794 1.8119
-0.37846 0.15946 1.8123
-0.37883 0.13371 1.8126
-0.37918 0.11501 1.8118
-0.37943 0.089102 1.8137
-0.37969 0.070252 1.8135
-0.37938 0.0443 1.8153
-0.37935 0.025468 1.8131
-0.37934 -0.00047899 1.8162
-0.37981 -0.019307 1.8161
-0.38027 -0.045314 1.8158
-0.38057 -0.06419 1.8168
-0.38089 -0.090169 1.8175
-0.38133 -0.10906 1.8215
-0.38126 -0.13523 1.8198
-0.38095 -0.15398 1.8184
-0.38039 -0.17981 1.8169
-0.38001 -0.19866 1.8185
-0.38052 -0.22481 1.8188
-0.38119 -0.24417 1.8205
-0.38251 -0.27065 1.8266
-0.38312 -0.29044 1.8305
-0.38394 -0.31757 1.8355
-0.38581 -0.33776 1.8402
-0.38645 -0.36453 1.8452
-0.38701 -0.38533 1.8525
-0.38767 -0.41134 1.8522
-0.38936 -0.43306 1.8631
-0.38957 -0.46029 1.8634
-0.39038 -0.4809 1.8714
-0.39096 -0.50847 1.8734
-0.39167 -0.53008 1.8741
-0.39246 -0.55551 1.8776
-0.39381 -0.57625 1.8746
-0.39376 -0.60571 1.8828
-0.39447 -0.62549 1.8809
-0.39516 -0.65177 1.8848
-0.39417 -0.6723 1.8833
-0.39376 -0.69886 1.8836
-0.39273 -0.71745 1.8808
-0.39274 -0.7428 1.8767
-0.40764 0.71014 1.8492
-0.40935 0.6838 1.8488
-0.40756 0.66347 1.8471
-0.40762 0.63494 1.8476
-0.40689 0.61557 1.8392
-0.4066 0.58643 1.8428
-0.40519 0.56742 1.84
-0.40493 0.54043 1.8347
-0.40311 0.52044 1.83
-0.40386 0.49413 1.8282
-0.40269 0.47531 1.8244
-0.40253 0.4493 1.8215
-0.40197 0.42888 1.8211
-0.40247 0.40235 1.8233
-0.4013 0.38303 1.8153
-0.40075 0.35683 1.8131
-0.40078 0.33676 1.8089
-0.40001 0.31149 1.8113
-0.40001 0.29277 1.8081
-0.40088 0.26724 1.8112
-0.40138 0.24871 1.8121
-0.40113 0.22255 1.816
-0.40098 0.20385 1.8171
-0.40123 0.17799 1.814
-0.40053 0.15929 1.8123
-0.401 0.13353 1.8169
-0.40158 0.11485 1.8181
-0.40191 0.088986 1.8195
-0.402 0.070232 1.8196
-0.4022 0.044238 1.8204
-0.40231 0.025481 1.8208
-0.40238 -0.00050166 1.8213
-0.4024 -0.019333 1.8207
-0.40233 -0.045342 1.8203
-0.40236 -0.064178 1.8198
-0.40295 -0.090279 1.8197
-0.40357 -0.10924 1.8204
-0.40353 -0.13538 1.8219
-0.40323 -0.15434 1.8214
-0.40274 -0.18016 1.8217
-0.40233 -0.19884 1.8202
-0.40317 -0.22505 1.82
-0.40436 -0.2447 1.8261
-0.40521 -0.27099 1.8287
-0.40633 -0.29117 1.8335
-0.40727 -0.31817 1.8384
-0.40851 -0.33815 1.8435
-0.40862 -0.36525 1.8485
-0.41005 -0.38495 1.8527
-0.40996 -0.41298 1.8578
-0.41205 -0.43338 1.8648
-0.41232 -0.46066 1.8624
-0.41353 -0.48076 1.8705
-0.41371 -0.50912 1.8725
-0.41492 -0.52915 1.8711
-0.41581 -0.55624 1.8755
-0.41684 -0.57796 1.881
-0.41573 -0.60454 1.8815
-0.41691 -0.62466 1.8874
-0.41732 -0.65326 1.8845
-0.41766 -0.67312 1.8878
-0.41687 -0.69863 1.8829
-0.4167 -0.71759 1.8814
-0.41526 -0.74246 1.8738
-0.43193 0.70919 1.8568
-0.43137 0.68446 1.8533
-0.43213 0.66493 1.8504
-0.43062 0.63739 1.8521
-0.42879 0.61563 1.8437
-0.42989 0.58802 1.844
-0.42789 0.56815 1.8439
-0.42815 0.54198 1.8403
-0.42687 0.52152 1.8351
-0.42713 0.49512 1.8322
-0.42595 0.47546 1.8321
-0.42571 0.44957 1.8301
-0.42457 0.43029 1.8261
-0.42437 0.40374 1.8245
-0.42442 0.38336 1.8224
-0.42347 0.35715 1.8143
-0.42236 0.33758 1.8119
-0.42269 0.31183 1.8134
-0.42264 0.29308 1.813
-0.42287 0.26735 1.8151
-0.42259 0.24853 1.8145
-0.42337 0.22305 1.8196
-0.4234 0.20431 1.8197
-0.42308 0.17817 1.8183
-0.42336 0.15956 1.8167
-0.42376 0.13379 1.819
-0.42406 0.11508 1.8185
-0.42442 0.08915 1.8215
-0.42516 0.070344 1.8205
