# .PCD v0.7 - Point Cloud Data file format
VERSION 0.7
FIELDS x y z
SIZE 4 4 4
TYPE F F F
COUNT 1 1 1
WIDTH 1983
HEIGHT 1
VIEWPOINT 0 0 0 1 0 0 0
POINTS 1983
DATA ascii
0.27642 -0.030506 1.2178
0.27664 -0.043163 1.2174
0.2765 -0.060734 1.2167
0.27453 -0.073247 1.2125
0.26044 -0.084805 1.1469
0.20671 -0.076843 0.90994
0.18413 -0.080166 0.80678
0.15176 -0.073084 0.66887
0.14649 -0.079742 0.64623
0.14393 -0.084626 0.63388
0.14097 -0.092095 0.62013
0.13922 -0.097229 0.61336
0.13762 -0.10451 0.60662
0.13574 -0.10978 0.59978
0.13493 -0.11755 0.59369
0.13468 -0.12304 0.59085
0.13426 -0.13052 0.58729
0.13297 -0.13634 0.58603
0.1322 -0.14348 0.58161
0.13171 -0.1491 0.57839
0.13111 -0.15687 0.57593
0.13079 -0.16245 0.57494
0.13023 -0.16969 0.57128
0.13043 -0.17515 0.57197
0.13017 -0.18339 0.57014
0.12993 -0.18901 0.56846
0.12941 -0.1964 0.56694
0.12934 -0.20248 0.56951
0.12945 -0.21076 0.56698
0.12948 -0.21672 0.56644
0.13018 -0.22653 0.56848
0.29645 0.5248 1.376
0.29234 0.50587 1.3596
0.29187 0.48686 1.3596
0.29311 0.46792 1.3633
0.30292 0.47217 1.4029
0.30977 0.46489 1.4465
0.31064 0.45117 1.4506
0.31175 0.42975 1.4587
0.31237 0.41461 1.4522
0.31367 0.39642 1.4584
0.31505 0.38199 1.462
0.31608 0.36224 1.4667
0.31521 0.34629 1.468
0.3152 0.32561 1.4717
0.31514 0.31106 1.47
0.31599 0.29081 1.474
0.31058 0.27057 1.4499
0.30914 0.24757 1.4379
0.30964 0.23309 1.4402
0.31029 0.21292 1.4442
0.30983 0.19744 1.4462
0.30492 0.17556 1.4204
0.30443 0.15974 1.4176
0.30367 0.1395 1.4189
0.30111 0.1238 1.4043
0.29959 0.10299 1.3976
0.29684 0.087523 1.3837
0.29221 0.067145 1.3682
0.28895 0.051823 1.353
0.2863 0.032501 1.3339
0.27923 0.018273 1.2968
0.27611 -0.00034563 1.2821
0.27427 -0.013582 1.2769
0.27423 -0.031859 1.2765
0.27779 -0.045678 1.2964
0.2805 -0.06493 1.3025
0.267 -0.074376 1.2373
0.25937 -0.090553 1.2117
0.19488 -0.076628 0.91226
0.15127 -0.069508 0.70594
0.13932 -0.070814 0.65304
0.13672 -0.078564 0.6366
0.134 -0.083557 0.62421
0.13175 -0.09106 0.61326
0.13055 -0.096305 0.60745
0.12893 -0.10373 0.60049
0.12824 -0.10956 0.59667
0.12741 -0.11685 0.59169
0.12674 -0.1227 0.5877
0.12598 -0.13026 0.58431
0.12547 -0.13575 0.58302
0.1247 -0.14295 0.57816
0.12471 -0.14861 0.57553
0.1239 -0.15635 0.57356
0.1236 -0.16168 0.57297
0.12314 -0.16928 0.57228
0.12282 -0.17525 0.57045
0.12263 -0.18286 0.5684
0.12256 -0.1886 0.56663
0.12223 -0.19598 0.56451
0.12199 -0.20204 0.56504
0.12162 -0.20974 0.56397
0.12179 -0.21587 0.56598
0.12228 -0.22285 0.56506
0.28177 0.5412 1.3979
0.28219 0.51835 1.4037
0.28308 0.50426 1.3956
0.28838 0.48859 1.4132
0.29269 0.48469 1.4438
0.30012 0.47625 1.4876
0.30481 0.46673 1.5071
0.30667 0.44824 1.5162
0.30748 0.43373 1.5177
0.30661 0.41181 1.5231
0.30737 0.39632 1.5201
0.30686 0.37365 1.5176
0.30471 0.35647 1.5068
0.30497 0.33559 1.5102
0.30503 0.31911 1.5111
0.30553 0.29825 1.5079
0.305 0.28211 1.5101
0.30573 0.262 1.5137
0.30703 0.24668 1.5184
0.30767 0.22539 1.5215
0.3078 0.20798 1.5169
0.30479 0.18457 1.4946
0.30131 0.16817 1.4902
0.30078 0.14662 1.4807
0.29708 0.12896 1.4642
0.2932 0.10692 1.4488
0.29038 0.091043 1.4369
0.28639 0.069451 1.4172
0.28142 0.053894 1.3944
0.27846 0.033603 1.3789
0.27446 0.019044 1.3501
0.27301 -0.00034745 1.3502
0.273 -0.014344 1.352
0.27451 -0.033774 1.3573
0.28144 -0.049488 1.3872
0.27742 -0.06828 1.3835
0.2655 -0.078943 1.317
0.24529 -0.090752 1.2147
0.14988 -0.062545 0.74236
0.13597 -0.06654 0.67205
0.13021 -0.069946 0.6405
0.12795 -0.077371 0.62746
0.12532 -0.082756 0.61591
0.12363 -0.090495 0.61205
0.12219 -0.095804 0.60349
0.12147 -0.10372 0.5996
0.12078 -0.10896 0.5946
0.1198 -0.11697 0.58885
0.11927 -0.12222 0.58732
0.11835 -0.12981 0.58165
0.1181 -0.1353 0.57926
0.11742 -0.14281 0.5769
0.11715 -0.14846 0.57553
0.11639 -0.15588 0.5726
0.11614 -0.16142 0.57233
0.11583 -0.16904 0.5682
0.11552 -0.17453 0.56662
0.11508 -0.18225 0.56436
0.11521 -0.18769 0.56464
0.11488 -0.19534 0.56246
0.11467 -0.20163 0.5637
0.11481 -0.20885 0.56374
0.11457 -0.21535 0.56327
0.1143 -0.22342 0.56474
0.27308 0.5466 1.4283
0.27113 0.52796 1.4267
0.272 0.51303 1.4313
0.27757 0.50307 1.4596
0.28164 0.49646 1.4846
0.29048 0.48962 1.5337
0.29259 0.47518 1.5455
0.29534 0.45819 1.5515
0.29448 0.44113 1.5508
0.29713 0.42268 1.5563
0.29786 0.40884 1.5696
0.29883 0.38772 1.5748
0.29827 0.37033 1.5639
0.2978 0.34717 1.5634
0.29792 0.33068 1.5661
0.29922 0.30917 1.5671
0.29831 0.29249 1.5689
0.29885 0.27023 1.5688
0.29897 0.25424 1.5707
0.29775 0.23151 1.5683
0.29776 0.21485 1.5609
0.29641 0.19194 1.5634
0.29371 0.17391 1.5393
0.29189 0.1508 1.5358
0.28943 0.13369 1.5179
0.28671 0.11137 1.5124
0.28339 0.094341 1.4881
0.28061 0.072441 1.475
0.27553 0.056307 1.4507
0.27443 0.035199 1.441
0.27037 0.01999 1.4178
0.27041 -0.00035 1.418
0.27164 -0.015257 1.4286
0.2754 -0.036047 1.4462
0.2818 -0.052297 1.4721
0.27012 -0.070603 1.4177
0.25942 -0.081451 1.3636
0.19433 -0.07658 1.0273
0.13043 -0.058017 0.68727
0.12524 -0.064559 0.65417
0.12076 -0.069123 0.6326
0.11863 -0.077016 0.62168
0.11713 -0.082217 0.61464
0.11574 -0.089888 0.60576
0.1149 -0.0957 0.60246
0.11398 -0.10337 0.59546
0.11292 -0.10899 0.59306
0.11239 -0.11624 0.58624
0.11179 -0.12187 0.58412
0.11118 -0.12967 0.58167
0.11078 -0.13493 0.57843
0.11024 -0.14243 0.57645
0.10999 -0.148 0.57521
0.1094 -0.15561 0.57241
0.10925 -0.16118 0.57093
0.10886 -0.16875 0.5688
0.10836 -0.1745 0.56668
0.10795 -0.18197 0.56499
0.10769 -0.1873 0.56381
0.10776 -0.1952 0.56267
0.10751 -0.20061 0.56144
0.10705 -0.20823 0.56147
0.10705 -0.2146 0.56282
0.10726 -0.22216 0.56093
0.25743 0.55479 1.4517
0.25859 0.53663 1.4514
0.25996 0.52405 1.4561
0.26673 0.519 1.507
0.27141 0.51032 1.5304
0.27612 0.49623 1.5543
0.27819 0.48487 1.5722
0.28035 0.46582 1.5822
0.2828 0.45334 1.5826
0.28428 0.43226 1.5938
0.28525 0.41831 1.5966
0.28619 0.3967 1.6018
0.28566 0.37913 1.6036
0.28652 0.3562 1.6061
0.28578 0.33959 1.6063
0.28689 0.31751 1.6058
0.28679 0.3 1.607
0.28639 0.27699 1.6107
0.28622 0.26032 1.6037
0.28674 0.23764 1.6015
0.28651 0.22054 1.602
0.28483 0.19744 1.597
0.28483 0.18063 1.5989
0.28521 0.15733 1.6012
0.28389 0.14003 1.5891
0.28061 0.11607 1.5761
0.27918 0.099626 1.5667
0.27723 0.07645 1.5562
0.27447 0.059745 1.5353
0.27055 0.037311 1.5264
0.2686 0.021158 1.505
0.26864 -0.0003546 1.5051
0.26881 -0.015973 1.5133
0.26936 -0.037821 1.5214
0.26736 -0.052844 1.5088
0.26426 -0.073612 1.4794
0.21836 -0.073745 1.232
0.14218 -0.059772 0.80647
0.11993 -0.056913 0.67062
0.11523 -0.063639 0.64965
0.11197 -0.068576 0.62584
0.11055 -0.076839 0.61844
0.10885 -0.081836 0.60992
0.10817 -0.089929 0.60633
0.10756 -0.095357 0.60065
0.10632 -0.10327 0.59533
0.1057 -0.10847 0.58979
0.10494 -0.11613 0.5865
0.10458 -0.12182 0.58469
0.10378 -0.12914 0.58075
0.10356 -0.13484 0.57868
0.1029 -0.14223 0.5756
0.10261 -0.14786 0.57422
0.10228 -0.15542 0.57171
0.10202 -0.16089 0.57016
0.10149 -0.16844 0.56632
0.10154 -0.17414 0.56571
0.10115 -0.18155 0.56416
0.10096 -0.18686 0.56384
0.10056 -0.19433 0.56252
0.10058 -0.19956 0.56194
0.10032 -0.20753 0.55945
0.10039 -0.21375 0.56067
0.099971 -0.22222 0.5589
0.2461 0.5723 1.4834
0.24719 0.55278 1.4902
0.24798 0.53907 1.5032
0.25532 0.53077 1.5338
0.25868 0.52271 1.5549
0.26216 0.50717 1.5859
0.26633 0.49838 1.6054
0.26808 0.4788 1.6178
0.27017 0.46331 1.6222
0.27113 0.44064 1.627
0.27074 0.42395 1.628
0.27008 0.40167 1.6271
0.26943 0.38385 1.6238
0.26978 0.36093 1.6228
0.27034 0.34481 1.6262
0.27223 0.32239 1.6306
0.27291 0.30728 1.6471
0.27357 0.28446 1.6511
0.27323 0.26579 1.6416
0.272 0.24273 1.6361
0.27238 0.22601 1.6377
0.27313 0.20274 1.6406
0.27345 0.18576 1.6424
0.27204 0.16175 1.6441
0.2719 0.1448 1.635
0.27017 0.12029 1.6297
0.26775 0.1025 1.6223
0.26691 0.078818 1.6038
0.26466 0.061697 1.5902
0.26289 0.038704 1.5731
0.26141 0.022135 1.56
0.26075 -0.00035548 1.5602
0.26075 -0.016677 1.5683
0.25906 -0.039112 1.5551
0.2551 -0.054154 1.5405
0.24488 -0.073113 1.4824
0.16426 -0.059762 1.0005
0.11911 -0.053246 0.71883
0.11027 -0.055784 0.65702
0.10699 -0.063475 0.64192
0.10408 -0.06833 0.62343
0.103 -0.076442 0.61714
0.10123 -0.081677 0.60965
0.1008 -0.089771 0.60471
0.099909 -0.095153 0.59851
0.098898 -0.10303 0.59374
0.098492 -0.1085 0.58957
0.097836 -0.11604 0.58718
0.097259 -0.12173 0.58385
0.096543 -0.12908 0.57945
0.096185 -0.13454 0.57674
0.09529 -0.14195 0.57197
0.095072 -0.14756 0.57059
0.095071 -0.15533 0.56975
0.094834 -0.16087 0.56826
0.094496 -0.16842 0.56613
0.094321 -0.17394 0.56462
0.094125 -0.18135 0.56351
0.094002 -0.18687 0.56279
0.093576 -0.1942 0.56189
0.093336 -0.19975 0.56126
0.093506 -0.20737 0.55904
0.093363 -0.21301 0.55913
0.093307 -0.22207 0.56017
0.23174 0.58068 1.5045
0.23359 0.56181 1.5252
0.23804 0.55475 1.546
0.24066 0.53836 1.5711
0.24709 0.53499 1.6046
0.24849 0.51576 1.6139
0.25166 0.50842 1.6388
0.25323 0.48779 1.6455
0.25391 0.47202 1.6538
0.25481 0.45002 1.6598
0.2554 0.43214 1.6548
0.25475 0.40772 1.6521
0.25505 0.39123 1.6505
0.25497 0.36714 1.6589
0.25451 0.35075 1.6561
0.2562 0.32798 1.6669
0.25655 0.31222 1.672
0.25765 0.28903 1.6761
0.25783 0.27198 1.6774
0.25838 0.24768 1.6807
0.25798 0.22992 1.683
0.25786 0.20645 1.6861
0.25794 0.18924 1.6796
0.25828 0.16514 1.6743
0.25729 0.14743 1.6705
0.25629 0.12325 1.6647
0.25345 0.10527 1.651
0.25103 0.080178 1.6397
0.25115 0.063299 1.6338
0.25127 0.039986 1.6337
0.25075 0.022975 1.6279
0.24986 -0.00035379 1.6254
0.24914 -0.017135 1.6212
0.24426 -0.03946 1.5749
0.24038 -0.055108 1.5525
0.22141 -0.070896 1.431
0.12615 -0.048987 0.82071
0.1079 -0.051824 0.70044
0.10073 -0.054868 0.65698
0.098134 -0.062964 0.63829
0.095915 -0.068234 0.62119
0.094972 -0.076077 0.61655
0.094005 -0.081433 0.60856
0.09305 -0.089371 0.60295
0.092271 -0.094914 0.59849
0.091804 -0.10296 0.5931
0.091104 -0.10812 0.59018
0.090488 -0.1161 0.5858
0.089899 -0.12131 0.58293
0.089486 -0.12886 0.57693
0.088871 -0.13362 0.5756
0 0 -1
0 0 -1
0 0 -1
0 0 -1
0.087147 -0.16783 0.56556
0.087379 -0.17335 0.56425
0.087115 -0.18092 0.56264
0.086959 -0.18645 0.56162
0.086749 -0.19412 0.56099
0.086577 -0.19985 0.56103
0.086608 -0.20733 0.55924
0.086524 -0.21302 0.5581
0.086779 -0.22139 0.55752
0.21698 0.58913 1.5256
0.21796 0.56971 1.5375
0.22145 0.56016 1.5656
0.22731 0.55066 1.6049
0.22934 0.54208 1.6133
0.23593 0.53286 1.661
0.2372 0.51717 1.6713
0.23838 0.49792 1.6848
0.23906 0.47874 1.687
0.23991 0.45626 1.6931
0.24001 0.43991 1.6902
0.23921 0.41634 1.6841
0.23945 0.39953 1.6876
0.24047 0.3765 1.6932
0.2417 0.3597 1.7031
0.24239 0.33649 1.7078
0.24284 0.31903 1.7125
0.24267 0.29551 1.7144
0.24307 0.27823 1.715
0.24359 0.25442 1.7172
0.2437 0.23693 1.7196
0.24351 0.21197 1.7182
0.24343 0.1937 1.7156
0.24274 0.1691 1.717
0.24209 0.1509 1.7159
0.24226 0.12569 1.7072
0.23991 0.10765 1.6971
0.23878 0.082919 1.6829
0.23822 0.065181 1.6787
0.23473 0.040719 1.6544
0.23222 0.023165 1.6369
0.23105 -0.00034107 1.631
0.2299 -0.017151 1.624
0.222 -0.039222 1.5557
0.21353 -0.05394 1.5308
0.18832 -0.066023 1.3173
0.10241 -0.043235 0.72338
0.097852 -0.051356 0.68948
0.091569 -0.054626 0.6471
0.090256 -0.062907 0.63112
0.088387 -0.067914 0.62047
0.087102 -0.075945 0.61519
0.086373 -0.081475 0.60807
0.085317 -0.089391 0.60168
0.084929 -0.094895 0.59722
0.084569 -0.10279 0.59412
0.083995 -0.10813 0.58892
0.083273 -0.11598 0.58509
0.082718 -0.12109 0.58179
0.082289 -0.12847 0.5778
0 0 -1
0 0 -1
0 0 -1
0 0 -1
0 0 -1
0 0 -1
0.0802 -0.17336 0.56377
0.080295 -0.181 0.56259
0.080091 -0.18655 0.56119
0.079841 -0.19405 0.5601
0.079708 -0.20005 0.56051
0.079622 -0.20738 0.55895
0.079662 -0.21316 0.5583
0.079288 -0.22065 0.55994
0.19465 0.57591 1.507
0.19827 0.56469 1.5349
0.20283 0.56094 1.5678
0.20905 0.55275 1.6075
0.21521 0.55508 1.6566
0.2187 0.53932 1.6889
0.21982 0.52492 1.6953
0.22127 0.50359 1.7019
0.22186 0.48645 1.7052
0.2216 0.46251 1.7102
0.22174 0.44434 1.714
0.22233 0.42141 1.7128
0.2225 0.40424 1.7152
0.22217 0.38105 1.7178
0.22263 0.36394 1.7214
0.22336 0.33954 1.7281
0.22378 0.32233 1.7313
0.22432 0.29839 1.7356
0.22457 0.28121 1.7358
0.22498 0.25696 1.7399
0.225 0.23931 1.7415
0.22533 0.21433 1.7378
0.22458 0.19582 1.7306
0.22467 0.17092 1.7323
0.2244 0.15293 1.7308
0.22377 0.12775 1.7292
0.22284 0.10921 1.7177
0.22157 0.08385 1.707
0.21907 0.065765 1.6952
0.21906 0.041301 1.6831
0.21758 0.023774 1.6726
0.21272 -0.00033267 1.6448
0.211 -0.017281 1.6307
0.20129 -0.039111 1.5511
0.18966 -0.051582 1.489
0.14709 -0.05706 1.1541
0.091198 -0.042311 0.70218
0.088543 -0.050811 0.68417
0.083546 -0.054284 0.64498
0.081974 -0.062371 0.63169
0.080351 -0.067581 0.62146
0.079664 -0.075898 0.61227
0.07889 -0.081264 0.60599
0.07813 -0.089249 0.60212
0.077708 -0.094857 0.598
0.077401 -0.10283 0.59506
0.076681 -0.10812 0.58898
0.076165 -0.11583 0.58553
0.075707 -0.12101 0.58049
0.075318 -0.12833 0.57856
0 0 -1
0 0 -1
0 0 -1
0 0 -1
0 0 -1
0 0 -1
0 0 -1
0.073288 -0.18099 0.56232
0.073333 -0.18648 0.56126
0.073035 -0.19417 0.56009
0.072975 -0.20032 0.56011
0.072958 -0.20755 0.5584
0.072953 -0.21303 0.55802
0.07276 -0.22195 0.55734
0.16104 0.51524 1.3656
0.16431 0.51541 1.4064
0.17085 0.50759 1.4514
0.18777 0.55185 1.6013
0.19773 0.56173 1.6841
0.20294 0.55268 1.724
0.20352 0.53641 1.7291
0.2042 0.51337 1.7341
0.20444 0.49534 1.7383
0.20488 0.47041 1.74
0.2043 0.45299 1.7396
0.20472 0.42913 1.7402
0.20516 0.41144 1.7409
0.20534 0.38676 1.7427
0.20522 0.36863 1.7456
0.20501 0.3437 1.7475
0.20513 0.32598 1.746
0.20548 0.30155 1.7497
0.20557 0.28356 1.7494
0.20563 0.25887 1.751
0.2057 0.24059 1.7484
0.20588 0.21588 1.7515
0.2054 0.19704 1.7477
0.20537 0.17207 1.7447
0.20494 0.15364 1.7435
0.20402 0.12845 1.7353
0.20365 0.11007 1.7329
0.20245 0.084789 1.7215
0.20223 0.066757 1.7192
0.20095 0.04179 1.7053
0.1991 0.023954 1.6941
0.19754 -0.00032724 1.6878
0.19325 -0.017326 1.6576
0.18273 -0.039156 1.5534
0.17216 -0.051644 1.4912
0.13352 -0.056207 1.1362
0.081836 -0.041707 0.69319
0.080112 -0.05032 0.68105
0.075666 -0.054237 0.64521
0.074345 -0.062454 0.63154
0.07253 -0.067652 0.61911
0.07231 -0.075657 0.61316
0.071612 -0.081164 0.60681
0.070925 -0.089267 0.60229
0.070524 -0.094766 0.59763
0.07003 -0.10246 0.59331
0.06961 -0.10815 0.58982
0.068905 -0.11585 0.58534
0.068726 -0.12117 0.5815
0 0 -1
0 0 -1
0 0 -1
0 0 -1
0 0 -1
0 0 -1
0 0 -1
0 0 -1
0 0 -1
0.066413 -0.18637 0.56137
0.066288 -0.1943 0.56084
0.066197 -0.19976 0.56025
0.066208 -0.2077 0.55877
0.066151 -0.21303 0.55772
0.065915 -0.22209 0.55693
0.14688 0.53342 1.4015
0.14757 0.516 1.4081
0.15344 0.50818 1.4531
0.15749 0.51394 1.5113
0.1816 0.57556 1.7189
0.18273 0.55556 1.7311
0.18325 0.5387 1.7362
0.184 0.51582 1.7448
0.18387 0.4974 1.7441
0.18425 0.47395 1.7468
0.18445 0.45417 1.7466
0.18452 0.43064 1.749
0.18426 0.41259 1.7465
0.18459 0.38821 1.7485
0.18473 0.36996 1.75
0.18469 0.34511 1.7509
0.18445 0.32669 1.7529
0.18463 0.30207 1.7526
0.18466 0.28407 1.7533
0.18493 0.25941 1.7536
0.18489 0.24097 1.7545
0.18495 0.21624 1.7542
0.18492 0.19767 1.7557
0.18472 0.17254 1.7525
0.18455 0.15429 1.7481
0.18425 0.12902 1.7453
0.18311 0.11032 1.737
0.18295 0.085215 1.7343
0.18195 0.066985 1.7287
0.18124 0.042216 1.7223
0.18049 0.024309 1.7133
0.17882 -0.00031943 1.6981
0.17754 -0.017798 1.6899
0.17351 -0.040849 1.6594
0.15752 -0.05277 1.5017
0.12017 -0.056271 1.1429
0.073348 -0.0417 0.69412
0.071716 -0.050291 0.67832
0.067948 -0.054213 0.64535
0.066508 -0.06253 0.63237
0.065358 -0.067734 0.61946
0.064782 -0.075748 0.61396
0.064235 -0.08116 0.60458
0.063691 -0.089187 0.60248
0.063232 -0.09477 0.59671
0.062853 -0.10273 0.59409
0.062409 -0.10819 0.58765
0.061936 -0.11599 0.58484
0.061688 -0.12132 0.58225
0 0 -1
0 0 -1
0 0 -1
0 0 -1
0 0 -1
0 0 -1
0 0 -1
0 0 -1
0 0 -1
0 0 -1
0.05952 -0.19432 0.56046
0.059453 -0.1999 0.56083
0.05943 -0.20775 0.55896
0.059387 -0.21329 0.56
0.059145 -0.22172 0.55788
0.15084 0.62178 1.6155
0.14871 0.58649 1.5921
0.14676 0.56296 1.5872
0.15217 0.55646 1.6229
0.16128 0.57849 1.7258
0.16286 0.55806 1.7433
0.16299 0.54059 1.7483
0.16327 0.51685 1.751
0.16348 0.49969 1.7515
0.16338 0.47446 1.7525
0.1635 0.45673 1.7531
0.16368 0.43119 1.7522
0.16363 0.41348 1.752
0.16356 0.38881 1.7505
0.16368 0.37072 1.7529
0.16365 0.34555 1.7529
0.16366 0.32787 1.7543
0.16353 0.30231 1.7534
0.16358 0.28439 1.7528
0.16366 0.2595 1.7554
0.16382 0.24123 1.7554
0.16387 0.21649 1.7563
0.16377 0.19801 1.7554
0.16377 0.17275 1.7546
0.16348 0.15447 1.7507
0.16324 0.12918 1.7479
0.16224 0.11038 1.7391
0.16209 0.085353 1.7363
0.16125 0.067077 1.7308
0.16098 0.042277 1.7283
0.16015 0.024385 1.7243
0.15994 -0.00031369 1.7139
0.15825 -0.017912 1.7
0.15727 -0.041725 1.6736
0.14056 -0.053065 1.505
0.10668 -0.056328 1.1443
0.064985 -0.041744 0.69609
0.063249 -0.050157 0.67818
0.060358 -0.054359 0.64306
0.058926 -0.062683 0.63312
0.057907 -0.067776 0.61837
0.057532 -0.075954 0.61474
0.056827 -0.081218 0.60529
0.056391 -0.089471 0.60174
0.055935 -0.094841 0.59801
0.055689 -0.10284 0.59512
0.055334 -0.10808 0.58833
0.054878 -0.11614 0.58551
0.054632 -0.12151 0.58132
0 0 -1
0 0 -1
0 0 -1
0 0 -1
0 0 -1
0 0 -1
0 0 -1
0 0 -1
0 0 -1
0 0 -1
0.052745 -0.19483 0.56171
0.052752 -0.2003 0.56143
0.052592 -0.20801 0.56015
0.05263 -0.2135 0.5606
0.052449 -0.22049 0.56007
0.13686 0.64701 1.6967
0.13691 0.62179 1.6785
0.13328 0.59455 1.6608
0.13792 0.58493 1.6916
0.14131 0.58017 1.7377
0.14223 0.56002 1.749
0.14229 0.54285 1.7504
0.14248 0.51769 1.7529
0.14251 0.50024 1.7553
0.14265 0.4752 1.7561
0.14242 0.45716 1.7548
0.14241 0.43171 1.754
0.14249 0.41365 1.7531
0.14229 0.38918 1.7517
0.14243 0.37111 1.7538
0.14236 0.34585 1.7534
0.14254 0.32778 1.7536
0.1423 0.3026 1.7542
0.14244 0.28451 1.7537
0.14245 0.25938 1.7546
0.14247 0.24147 1.7551
0.14241 0.21635 1.7563
0.1425 0.19809 1.7568
0.14261 0.17296 1.7581
0.1422 0.15458 1.7539
0.14213 0.12928 1.7497
0.14129 0.1105 1.7413
0.14115 0.08548 1.7379
0.14054 0.067246 1.7333
0.14024 0.042369 1.7314
0.1405 0.024474 1.7299
0.13937 -0.00030618 1.7164
0.13864 -0.017994 1.7128
0.13759 -0.041974 1.6864
0.12501 -0.053407 1.5238
0.093397 -0.056807 1.1536
0.057415 -0.042388 0.70693
0.054667 -0.050064 0.67094
0.052566 -0.054434 0.64373
0.051546 -0.062366 0.63508
0.050481 -0.06784 0.61901
0.050008 -0.07616 0.61538
0.049493 -0.081264 0.60626
0.049194 -0.089515 0.60328
0.048754 -0.095033 0.59863
0.048535 -0.10294 0.59573
0.048195 -0.10812 0.59056
0.047868 -0.1162 0.58664
0.047585 -0.12164 0.58232
0.047255 -0.12883 0.57916
0 0 -1
0 0 -1
0 0 -1
0 0 -1
0 0 -1
0 0 -1
0 0 -1
0 0 -1
0.04603 -0.1868 0.56385
0.045953 -0.195 0.56224
0.04589 -0.20041 0.56106
0.04584 -0.20819 0.56067
0.045847 -0.21339 0.56041
0.045652 -0.22132 0.55846
0.11927 0.66051 1.73
0.1171 0.62637 1.6952
0.11559 0.60688 1.6855
0.11748 0.58584 1.6932
0.12088 0.58364 1.7431
0.12154 0.56198 1.7541
0.12148 0.54398 1.7556
0.12162 0.51972 1.7574
0.12157 0.50103 1.759
0.12172 0.47578 1.7579
0.12129 0.45768 1.7576
0.12114 0.43214 1.7554
0.12126 0.41372 1.7537
0.12116 0.3893 1.7532
0.12125 0.37142 1.7562
0.12115 0.34609 1.7535
0.12118 0.32764 1.7524
0.12111 0.30266 1.7532
0.12104 0.28424 1.7533
0.12119 0.2595 1.7542
0.12108 0.24124 1.753
0.12117 0.21633 1.7562
0.12124 0.19804 1.7571
0.12116 0.17311 1.756
0.12107 0.15466 1.7554
0.12094 0.12939 1.7513
0.12024 0.11071 1.7429
0.11987 0.085599 1.7386
0.11989 0.067346 1.7349
0.11967 0.042483 1.733
0.11973 0.024552 1.7331
0.11905 -0.00029872 1.7215
0.11892 -0.018145 1.7161
0.11738 -0.042232 1.6879
0.10763 -0.054584 1.5626
0.08286 -0.059043 1.202
0.050456 -0.043848 0.7327
0.046312 -0.049479 0.67154
0.044754 -0.054638 0.64786
0.044051 -0.062792 0.63532
0.043103 -0.067894 0.62169
0.042631 -0.076424 0.61657
0.04204 -0.08136 0.60726
0.041835 -0.089645 0.6029
0.041511 -0.095109 0.59975
0.041362 -0.10309 0.59739
0.041037 -0.10819 0.59108
0.040819 -0.11628 0.58833
0.040612 -0.12186 0.58486
0.040365 -0.12957 0.58083
0 0 -1
0 0 -1
0 0 -1
0 0 -1
0 0 -1
0 0 -1
0 0 -1
0 0 -1
0.039206 -0.18694 0.56431
0.03919 -0.19508 0.56335
0.039167 -0.20041 0.56281
0.039049 -0.20837 0.56113
0.039056 -0.21358 0.5614
0.038945 -0.22159 0.56122
0.099449 0.66677 1.7427
0.098003 0.63035 1.7125
0.096824 0.60726 1.6869
0.097222 0.58575 1.6944
0.099948 0.58645 1.7566
0.10057 0.56404 1.764
0.10046 0.54581 1.7605
0.10056 0.52122 1.7617
0.10063 0.50268 1.7617
0.10048 0.47741 1.7592
0.1003 0.45786 1.7603
0.10022 0.43286 1.7581
0.10014 0.41427 1.755
0.099992 0.38928 1.7549
0.10006 0.37148 1.7539
0.099912 0.34615 1.7539
0.099984 0.32732 1.7533
0.099801 0.30263 1.7532
0.099819 0.28442 1.7535
0.099949 0.25936 1.7554
0.099843 0.24139 1.7534
0.099914 0.21617 1.7565
0.099857 0.19809 1.7563
0.099919 0.17296 1.7554
0.099872 0.15476 1.7543
0.09978 0.12959 1.7537
0.09926 0.11079 1.7442
0.098978 0.085665 1.7408
0.098923 0.067644 1.738
0.098726 0.042522 1.7356
0.098865 0.024611 1.7377
0.098213 -0.00029282 1.7239
0.098112 -0.018174 1.7238
0.097035 -0.042329 1.7043
0.091176 -0.056208 1.6002
0.072763 -0.063147 1.2877
0.042916 -0.045207 0.75449
0.038208 -0.049511 0.67283
0.037273 -0.05489 0.6534
0.036343 -0.062858 0.63613
0.035737 -0.068129 0.62221
0.035174 -0.076475 0.61703
0.034873 -0.081559 0.60849
0.03456 -0.089705 0.60425
0.034281 -0.095234 0.60131
0.03413 -0.10328 0.59704
0.033796 -0.10837 0.5914
0.033641 -0.11636 0.58838
0.03352 -0.12194 0.58544
0.033366 -0.12968 0.58177
0.033244 -0.1348 0.57995
0 0 -1
0 0 -1
0 0 -1
0 0 -1
0 0 -1
0 0 -1
0 0 -1
0.032368 -0.18735 0.566
0.032404 -0.19517 0.56454
0.03237 -0.2005 0.56341
0.032244 -0.2085 0.56273
0.032252 -0.21388 0.5627
0.032303 -0.22258 0.56192
0.078599 0.67115 1.744
0.077387 0.63713 1.7183
0.075656 0.60622 1.6878
0.075959 0.58475 1.6953
0.079065 0.58699 1.7577
0.079365 0.56512 1.7651
0.079393 0.54774 1.7681
0.079364 0.5215 1.7651
0.079326 0.50405 1.7642
0.079233 0.47771 1.7644
0.079095 0.45875 1.7613
0.07899 0.43314 1.7591
0.078851 0.41551 1.7586
0.078797 0.38944 1.7568
0.078821 0.37167 1.759
0.078702 0.34566 1.7529
0.078699 0.32738 1.7547
0.078593 0.30262 1.7542
0.078616 0.28458 1.7537
0.078596 0.25948 1.7546
0.078582 0.24099 1.7543
0.07861 0.21623 1.7553
0.078614 0.198 1.7555
0.078596 0.17289 1.7539
0.078652 0.15477 1.7549
0.078555 0.12966 1.7547
0.078303 0.11088 1.7469
0.077943 0.085711 1.743
0.0779 0.067687 1.7418
0.077838 0.042581 1.7367
0.077953 0.024694 1.744
0.077434 -0.0002901 1.7402
0.077434 -0.018309 1.7401
0.076867 -0.04273 1.7085
0.072409 -0.057364 1.6141
0.061274 -0.067705 1.3652
0.035044 -0.047027 0.78219
0.031059 -0.051336 0.69301
0.029353 -0.055262 0.6538
0.028753 -0.063337 0.64145
0.028167 -0.068189 0.62368
0.027847 -0.076515 0.62027
0.027466 -0.081744 0.61048
0.027273 -0.089934 0.60461
0.027106 -0.095463 0.60229
0.026925 -0.1035 0.59917
0.026622 -0.10883 0.59293
0.026535 -0.11646 0.58873
0.026407 -0.12218 0.58645
0.026261 -0.12989 0.58344
0.026199 -0.13529 0.58052
0.026042 -0.14266 0.5777
0 0 -1
0 0 -1
0 0 -1
0 0 -1
0 0 -1
0.025594 -0.18216 0.56483
0.025626 -0.18798 0.56733
0.025572 -0.19533 0.56535
0.025528 -0.20161 0.56439
0.025454 -0.20877 0.56371
0.025479 -0.21421 0.56301
0.025549 -0.222 0.56271
0.057755 0.67078 1.752
0.0568 0.63744 1.7383
0.05534 0.60335 1.6836
0.055551 0.58198 1.6911
0.057896 0.58926 1.7611
0.058106 0.56651 1.7712
0.058113 0.54871 1.7692
0.058171 0.52246 1.7703
0.058016 0.50486 1.7672
0.057957 0.47881 1.7671
0.057847 0.45932 1.7636
0.057788 0.43466 1.7607
0.057779 0.41577 1.7621
0.057575 0.38963 1.758
0.057564 0.37182 1.7591
0.057471 0.3458 1.7537
0.057448 0.32751 1.7555
0.057361 0.30262 1.754
0.057339 0.28462 1.7547
0.057366 0.25952 1.7554
0.057379 0.2411 1.7536
0.057338 0.21616 1.7553
0.057305 0.19796 1.7546
0.057352 0.17296 1.7545
0.057374 0.15484 1.7551
0.057328 0.12964 1.7555
0.057194 0.11093 1.7489
0.056947 0.08575 1.7468
0.056949 0.067718 1.7446
0.056799 0.042642 1.7397
0.057138 0.024764 1.7473
0.056749 -0.00028743 1.7411
0.056749 -0.018377 1.741
0.056229 -0.042827 1.717
0.054087 -0.058432 1.6613
0.048226 -0.073202 1.4662
0.028176 -0.051187 0.86134
0.02322 -0.052765 0.70946
0.021395 -0.055382 0.65502
0.021087 -0.063886 0.64595
0.020667 -0.068508 0.62957
0.020334 -0.0768 0.62056
0.020105 -0.082132 0.61154
0.020003 -0.09008 0.60875
0.019789 -0.095585 0.60307
0.019675 -0.10354 0.59767
0.019454 -0.10911 0.5932
0.019393 -0.11695 0.59094
0.019346 -0.12223 0.5878
0.019181 -0.12997 0.58423
0.019145 -0.13573 0.58239
0.01905 -0.14321 0.57986
0.018986 -0.14825 0.57766
0 0 -1
0 0 -1
0.018763 -0.16857 0.56965
0.018824 -0.1755 0.57065
0.018786 -0.18278 0.56831
0.018795 -0.18899 0.56829
0.018723 -0.19644 0.56603
0.018708 -0.2018 0.56624
0.018678 -0.20897 0.56395
0.018712 -0.21505 0.5639
0.018713 -0.22329 0.5655
0.036621 0.67242 1.7566
0.036192 0.64097 1.7397
0.034851 0.59871 1.6815
0.034969 0.5775 1.6891
0.036677 0.5897 1.7656
0.03683 0.56694 1.7731
0.036788 0.5494 1.7743
0.036746 0.52438 1.7715
0.036694 0.50515 1.7729
0.036596 0.47893 1.7688
0.036616 0.45988 1.7657
0.036484 0.43513 1.7666
0.036466 0.41643 1.763
0.036309 0.39009 1.7624
0.036346 0.37215 1.7609
0.036225 0.34581 1.7575
0.036199 0.32759 1.7567
0.03613 0.3027 1.7529
0.036116 0.2845 1.7553
0.036117 0.25927 1.7553
0.03612 0.24117 1.7542
0.036113 0.21622 1.7555
0.036075 0.19804 1.7553
0.036083 0.17301 1.7546
0.0361 0.15479 1.7557
0.036099 0.12967 1.7558
0.035989 0.11119 1.7503
0.035857 0.085821 1.7473
0.035871 0.067775 1.7467
0.03583 0.042719 1.7407
0.035967 0.024791 1.7528
0.035987 -0.00028559 1.7427
0.036012 -0.018438 1.7511
0.035655 -0.043208 1.7287
0.034623 -0.05947 1.6896
0.031961 -0.077188 1.5565
0.020023 -0.058493 0.97515
0.015034 -0.054395 0.73349
0.013465 -0.055396 0.65523
0.013294 -0.064243 0.64616
0.013086 -0.069331 0.6344
0.012884 -0.076891 0.62368
0.012715 -0.082388 0.61376
0.012597 -0.090655 0.60974
0.01248 -0.095855 0.60376
0.012417 -0.10392 0.60117
0.012304 -0.1092 0.59493
0.012223 -0.1171 0.59182
0.0122 -0.12278 0.58993
0.012165 -0.1303 0.58548
0.012116 -0.13608 0.5831
0.012083 -0.14367 0.5812
0.012059 -0.14934 0.57942
0.011998 -0.156 0.57656
0.011974 -0.16153 0.57425
0.011941 -0.1697 0.57358
0.011943 -0.17594 0.5733
0.011907 -0.18367 0.56965
0.011912 -0.18934 0.56919
0.011878 -0.19681 0.56781
0.011859 -0.20248 0.56673
0.011843 -0.20992 0.56473
0.011887 -0.21536 0.56416
0.011868 -0.22286 0.56538
0.015381 0.67291 1.757
0.015256 0.64407 1.7445
0.01458 0.59652 1.6716
0.014607 0.57539 1.6791
0.015335 0.59045 1.7686
0.015377 0.56766 1.7761
0.015367 0.54997 1.7773
0.015314 0.52444 1.7749
0.015282 0.50614 1.7743
0.015213 0.47941 1.7691
0.015204 0.46086 1.7662
0.015124 0.43518 1.7684
0.01512 0.41648 1.7636
0.015061 0.39074 1.7618
0.015028 0.37225 1.7626
0.014963 0.34653 1.7578
0.014949 0.32808 1.7599
0.014897 0.30265 1.7532
0.014879 0.28448 1.7532
0.014873 0.25933 1.754
0.014871 0.24134 1.7555
0.014855 0.21625 1.7559
0.014853 0.19807 1.7564
0.014836 0.17313 1.7571
0.01483 0.15481 1.7553
0.014826 0.12974 1.7559
0.01478 0.11126 1.7525
0.014738 0.086042 1.7501
0.014742 0.067982 1.7509
0.014711 0.042726 1.7465
0.014791 0.024806 1.7557
0.0148 -0.00028443 1.7529
0.014842 -0.018465 1.7581
0.014766 -0.043468 1.7339
0.01446 -0.060673 1.7002
0.013753 -0.081197 1.6374
0.0099272 -0.070782 1.1794
0.0068237 -0.060305 0.81146
0.0056849 -0.057373 0.67252
0.0055048 -0.064379 0.65448
0.0054085 -0.070227 0.63749
0.0053351 -0.078088 0.629
0.0052415 -0.082852 0.61617
0.0052069 -0.090763 0.61124
0.0051584 -0.096219 0.60607
0.0051198 -0.10425 0.60196
0.005082 -0.10939 0.59759
0.0050706 -0.11744 0.59214
0.0050546 -0.12296 0.59013
0.0050364 -0.13087 0.58838
0.0050282 -0.1365 0.58618
0.0050096 -0.14412 0.58229
0.0050037 -0.14966 0.58148
0.0049965 -0.15723 0.57941
0.0049899 -0.16286 0.57786
0.004984 -0.17049 0.57508
0.0049836 -0.17649 0.57343
0.0049759 -0.18399 0.57163
0.0049786 -0.18964 0.57072
0.0049725 -0.19745 0.56837
0.0049754 -0.20275 0.56883
0.0049873 -0.21023 0.5662
0.0049951 -0.21583 0.56824
0.004991 -0.22328 0.56855
-0.0058707 0.67363 1.7569
-0.0058903 0.64886 1.7508
-0.005586 0.5908 1.6465
-0.0056502 0.56987 1.6539
-0.0060517 0.59103 1.7696
-0.0061163 0.56822 1.7771
-0.0061539 0.55033 1.7791
-0.0061793 0.52495 1.7764
-0.0062054 0.50661 1.7763
-0.0062264 0.48041 1.7749
-0.0062497 0.46103 1.7726
-0.0062597 0.43613 1.77
-0.0062847 0.41639 1.7678
-0.0062982 0.39113 1.7637
-0.0063107 0.37273 1.764
-0.0063262 0.34713 1.7598
-0.0063353 0.32833 1.7609
-0.0063513 0.30266 1.7581
-0.0063521 0.28445 1.7539
-0.0063751 0.25962 1.754
-0.0063885 0.24137 1.7557
-0.0064075 0.21638 1.756
-0.0064198 0.19809 1.7557
-0.0064303 0.17309 1.7555
-0.0064367 0.15481 1.7562
-0.006451 0.12983 1.7562
-0.0064581 0.11142 1.7549
-0.0064447 0.086171 1.7504
-0.0064516 0.068008 1.7512
-0.0064444 0.042847 1.7507
-0.0064736 0.02487 1.7582
-0.0064755 -0.00028411 1.7578
-0.0064869 -0.018526 1.7583
-0.0064577 -0.043508 1.7573
-0.0063571 -0.060953 1.7334
-0.0062225 -0.083519 1.6882
-0.0051268 -0.083586 1.3959
-0.0035506 -0.072043 0.96861
-0.0025603 -0.059047 0.69747
-0.0024506 -0.065404 0.66621
-0.0023622 -0.070474 0.64251
-0.0023295 -0.078564 0.63503
-0.0022733 -0.083501 0.62353
-0.0022396 -0.091171 0.61367
-0.0022186 -0.096539 0.60907
-0.0021857 -0.10428 0.60468
-0.0021695 -0.11008 0.59989
-0.0021419 -0.11763 0.59603
-0.00213 -0.12345 0.59186
-0.002112 -0.13122 0.58921
-0.0021009 -0.137 0.58855
-0.0020793 -0.14475 0.58537
-0.0020637 -0.1503 0.58284
-0.0020446 -0.15779 0.57982
-0.0020331 -0.16352 0.57836
-0.0020127 -0.17118 0.57614
-0.0020013 -0.17674 0.57523
-0.0019811 -0.18469 0.57287
-0.0019712 -0.19023 0.57243
-0.0019534 -0.1976 0.57088
-0.0019426 -0.20406 0.5698
-0.0019241 -0.21131 0.56806
-0.0019099 -0.21668 0.56851
-0.0019031 -0.2242 0.56658
-0.027104 0.67485 1.7568
-0.027191 0.64959 1.7568
-0.02522 0.58647 1.638
-0.025372 0.5657 1.6454
-0.027491 0.59152 1.7729
-0.027647 0.56873 1.7804
-0.027715 0.55088 1.7803
-0.027677 0.52524 1.7763
-0.027712 0.50662 1.7772
-0.027698 0.48056 1.7765
-0.027708 0.46143 1.7753
-0.02771 0.43615 1.7698
-0.027714 0.41632 1.7679
-0.027667 0.39116 1.7671
-0.027688 0.37301 1.765
-0.02768 0.34731 1.7639
-0.027656 0.32892 1.7608
-0.027641 0.30311 1.7595
-0.02761 0.28449 1.7565
-0.027637 0.25966 1.7562
-0.027655 0.24148 1.756
-0.027687 0.21653 1.7559
-0.027698 0.19806 1.7563
-0.027723 0.17318 1.7571
-0.027726 0.15499 1.7572
-0.027735 0.12982 1.7572
-0.027754 0.11165 1.7568
-0.027734 0.086316 1.7524
-0.027752 0.068124 1.7532
-0.027677 0.042902 1.7515
-0.027763 0.024875 1.758
-0.027753 -0.00028502 1.7574
-0.027804 -0.018524 1.7581
-0.02778 -0.043502 1.7575
-0.027531 -0.061573 1.7554
-0.026907 -0.083689 1.6881
-0.024346 -0.091549 1.5478
-0.018205 -0.085246 1.1483
-0.011386 -0.061139 0.72324
-0.010736 -0.067121 0.68132
-0.010208 -0.070469 0.64498
-0.010128 -0.079174 0.63912
-0.0099565 -0.084168 0.62903
-0.0097793 -0.092121 0.62116
-0.0096802 -0.097189 0.61264
-0.0095741 -0.10476 0.60632
-0.0095443 -0.11079 0.60352
-0.0094161 -0.11788 0.59824
-0.0093323 -0.12352 0.59367
-0.0092903 -0.13155 0.58981
-0.00927 -0.13727 0.59059
-0.0092199 -0.14505 0.58657
-0.00919 -0.15077 0.58556
-0.0091142 -0.15857 0.58261
-0.0091086 -0.16418 0.58122
-0.0090631 -0.17164 0.57882
-0.0090358 -0.17747 0.57733
-0.0089882 -0.18501 0.5751
-0.0089565 -0.19129 0.57414
-0.0089207 -0.19872 0.57251
-0.008914 -0.20421 0.57291
-0.0088674 -0.21186 0.57041
-0.0088719 -0.21762 0.57181
-0.0088147 -0.22517 0.57193
-0.048423 0.67505 1.7573
-0.048538 0.65046 1.7631
-0.045028 0.5863 1.6377
-0.04527 0.56554 1.645
-0.048981 0.59135 1.773
-0.04923 0.5694 1.7805
-0.049315 0.55127 1.7825
-0.04919 0.52676 1.7799
-0.049289 0.50744 1.7797
-0.049211 0.48122 1.7773
-0.049151 0.46252 1.7759
-0.049175 0.43616 1.7712
-0.049144 0.41735 1.7699
-0.049137 0.39194 1.7686
-0.049145 0.37315 1.7682
-0.04902 0.34798 1.7658
-0.04904 0.32951 1.7643
-0.049018 0.30388 1.762
-0.048975 0.28485 1.759
-0.048927 0.25967 1.7584
-0.048889 0.24173 1.7574
-0.048961 0.21655 1.7585
-0.049012 0.19851 1.7581
-0.049031 0.17315 1.7582
-0.049055 0.155 1.7584
-0.049119 0.12996 1.76
-0.04914 0.11181 1.76
-0.049069 0.086533 1.7578
-0.049107 0.068473 1.7596
-0.049047 0.043019 1.7531
-0.049033 0.024883 1.7601
-0.048808 -0.00028678 1.7496
-0.049041 -0.01852 1.7602
-0.049065 -0.043593 1.7572
-0.049049 -0.061992 1.7566
-0.047927 -0.086278 1.7284
-0.045692 -0.098407 1.6298
-0.039185 -0.10369 1.3981
-0.022864 -0.069284 0.81861
-0.019631 -0.069643 0.70463
-0.018383 -0.071989 0.65896
-0.017915 -0.079294 0.64121
-0.017786 -0.084701 0.63356
-0.017484 -0.092501 0.62644
-0.017309 -0.098386 0.62109
-0.017072 -0.10563 0.61127
-0.016949 -0.11107 0.60852
-0.016807 -0.11897 0.59856
-0.016755 -0.12464 0.59734
-0.016558 -0.13197 0.59543
-0.01649 -0.13788 0.59227
-0.016415 -0.14584 0.58914
-0.016338 -0.15086 0.58889
-0.016255 -0.15869 0.58526
-0.016205 -0.16433 0.58473
-0.016133 -0.17206 0.58145
-0.016101 -0.17838 0.58065
-0.016025 -0.18581 0.57714
-0.016035 -0.19152 0.57681
-0.015972 -0.19906 0.57519
-0.015933 -0.20454 0.57537
-0.015919 -0.21322 0.57449
-0.015905 -0.21855 0.5739
-0.015831 -0.22668 0.57017
-0.069668 0.67437 1.763
-0.069968 0.65179 1.7626
-0.065178 0.58972 1.6555
-0.065511 0.56883 1.6629
-0.070474 0.59342 1.7728
-0.070844 0.57075 1.7818
-0.070875 0.55229 1.7835
-0.070842 0.52728 1.7828
-0.070793 0.50812 1.7811
-0.070882 0.48212 1.7776
-0.070817 0.46348 1.7757
-0.070604 0.43688 1.7724
-0.070613 0.41861 1.7731
-0.070643 0.39204 1.7702
-0.07061 0.37364 1.7693
-0.070523 0.34851 1.7692
-0.070467 0.32971 1.7667
-0.070533 0.30468 1.7658
-0.070441 0.28584 1.761
-0.070367 0.25999 1.7613
-0.070283 0.24189 1.7603
-0.070343 0.21681 1.7599
-0.070277 0.19849 1.7599
-0.070398 0.17358 1.7625
-0.070424 0.15525 1.7628
-0.070484 0.13015 1.764
-0.070543 0.11198 1.7653
-0.07057 0.086731 1.7648
-0.07067 0.068518 1.7671
-0.070399 0.04325 1.7624
-0.070295 0.024877 1.7594
-0.069955 -0.00028947 1.7484
-0.070306 -0.018521 1.7594
-0.070432 -0.043842 1.762
-0.070547 -0.062346 1.7657
-0.070189 -0.0865 1.7509
-0.068552 -0.10208 1.7117
-0.063712 -0.11752 1.5929
-0.04349 -0.091188 1.0839
-0.03042 -0.075312 0.76189
-0.027157 -0.074322 0.68057
-0.026099 -0.080821 0.6569
-0.025556 -0.085275 0.63786
-0.025381 -0.093495 0.63148
-0.025029 -0.099269 0.62493
-0.024722 -0.10616 0.61552
-0.024495 -0.11179 0.61071
-0.024298 -0.11981 0.60832
-0.024141 -0.12505 0.60053
-0.023902 -0.13278 0.59583
-0.023843 -0.13867 0.59654
-0.023701 -0.14647 0.59256
-0.023629 -0.15225 0.59081
-0.023497 -0.1595 0.58725
-0.023394 -0.16516 0.58714
-0.023295 -0.17306 0.58317
-0.023237 -0.17861 0.58334
-0.023198 -0.18629 0.57949
-0.023146 -0.1923 0.58011
-0.023063 -0.20018 0.57808
-0.023088 -0.20623 0.57834
-0.023009 -0.21357 0.5775
-0.023001 -0.22047 0.57552
-0.022972 -0.229 0.57862
-0.09104 0.67396 1.7622
-0.09136 0.65197 1.7695
-0.085401 0.59406 1.6588
-0.085825 0.57301 1.6662
-0.092043 0.59334 1.7759
-0.092475 0.57106 1.786
-0.092537 0.55343 1.7847
-0.092552 0.52731 1.7833
-0.092592 0.50911 1.7845
-0.092379 0.48218 1.7798
-0.092308 0.46381 1.778
-0.092181 0.43695 1.7745
-0.092224 0.41897 1.7737
-0.092056 0.3923 1.7745
-0.092044 0.37407 1.7718
-0.092102 0.34916 1.7714
-0.09202 0.3305 1.7676
-0.092017 0.30506 1.7702
-0.091948 0.28627 1.7652
-0.091892 0.26081 1.7639
-0.091755 0.24194 1.761
-0.091784 0.217 1.7635
-0.091818 0.1988 1.7646
-0.091872 0.17377 1.7648
-0.091847 0.15551 1.7632
-0.091968 0.13037 1.7652
-0.092043 0.11213 1.7665
-0.09207 0.086887 1.7657
-0.092133 0.068618 1.7694
-0.092052 0.043235 1.7669
-0.091878 0.024954 1.7651
-0.091065 -0.00029433 1.7479
-0.091526 -0.018515 1.7585
-0.09169 -0.04382 1.761
-0.091889 -0.062509 1.7699
-0.092226 -0.087598 1.7758
-0.091164 -0.10398 1.7484
-0.08821 -0.12465 1.687
-0.073934 -0.12059 1.4273
-0.053126 -0.10086 1.0198
-0.037547 -0.078459 0.7202
-0.035231 -0.083705 0.67525
-0.033719 -0.086596 0.6485
-0.03318 -0.094157 0.63618
-0.033029 -0.09987 0.63015
-0.032514 -0.10739 0.62315
-0.032194 -0.11318 0.61798
-0.031868 -0.1207 0.60987
-0.031706 -0.12618 0.60754
-0.031356 -0.13404 0.6035
-0.031259 -0.13907 0.60079
-0.030955 -0.14716 0.5961
-0.030997 -0.15297 0.59464
-0.03075 -0.16063 0.59021
-0.030666 -0.1663 0.58912
-0.03054 -0.17409 0.58687
-0.030541 -0.17983 0.58518
-0.030417 -0.18772 0.5824
-0.030357 -0.19323 0.58062
-0.030276 -0.20077 0.58237
-0.030268 -0.20715 0.58188
-0.03017 -0.21521 0.58051
-0.030162 -0.22164 0.58116
-0.030114 -0.22894 0.58001
-0.11241 0.67455 1.7602
-0.11284 0.65175 1.7685
-0.1058 0.59626 1.6664
-0.10631 0.57513 1.6738
-0.11346 0.59407 1.7774
-0.11425 0.57113 1.7853
-0.1143 0.55304 1.7864
-0.11408 0.52786 1.7853
-0.11413 0.50893 1.7865
-0.11414 0.48301 1.7816
-0.11385 0.46355 1.7783
-0.11377 0.43765 1.7791
-0.11363 0.41899 1.7745
-0.11378 0.3932 1.7744
-0.11355 0.37437 1.7732
-0.11373 0.34939 1.774
-0.11359 0.33051 1.7732
-0.11351 0.30561 1.7697
-0.11342 0.28667 1.7712
-0.11351 0.26092 1.7671
-0.11312 0.24252 1.7647
-0.11326 0.21723 1.7668
-0.11332 0.19901 1.7651
-0.11339 0.17374 1.7674
-0.1135 0.15562 1.7669
-0.11345 0.1304 1.7673
-0.11354 0.11219 1.7661
-0.11365 0.086862 1.7676
-0.11372 0.06869 1.7688
-0.11358 0.043305 1.7657
-0.11319 0.024937 1.7641
-0.11222 -0.0003006 1.7484
-0.11269 -0.018512 1.7529
-0.11267 -0.043652 1.7525
-0.11363 -0.062467 1.7686
-0.11372 -0.087813 1.7746
-0.11366 -0.10517 1.7736
-0.11059 -0.12831 1.726
-0.10458 -0.13813 1.6224
-0.088564 -0.13574 1.3825
-0.055201 -0.09443 0.8612
-0.045687 -0.087823 0.71136
-0.043 -0.090068 0.67206
-0.04139 -0.09534 0.64183
-0.040833 -0.10052 0.63476
-0.040582 -0.10868 0.63085
-0.039975 -0.11439 0.62233
-0.03961 -0.12158 0.61594
-0.039254 -0.12694 0.60934
-0.038972 -0.13483 0.60644
-0.038773 -0.14045 0.60184
-0.038405 -0.1483 0.59981
-0.038339 -0.15313 0.59779
-0.038108 -0.16109 0.59288
-0.038088 -0.16729 0.59257
-0.037976 -0.17513 0.5903
-0.037891 -0.18032 0.59051
-0.037696 -0.18799 0.58809
-0.037604 -0.19422 0.58629
-0.03761 -0.20228 0.58547
-0.037496 -0.20884 0.58424
-0.037416 -0.21627 0.58657
-0.037378 -0.22199 0.58494
-0.037672 -0.23164 0.5847
-0.13373 0.67441 1.7567
-0.13429 0.65239 1.7672
-0.12692 0.60122 1.6735
-0.12753 0.57991 1.6809
-0.13514 0.59384 1.7784
-0.13578 0.57248 1.7896
-0.13587 0.55359 1.7888
-0.13619 0.52846 1.7874
-0.13592 0.50976 1.7857
-0.13601 0.48313 1.7858
-0.13557 0.46415 1.7818
-0.13552 0.43779 1.7786
-0.13526 0.41925 1.7736
-0.13554 0.3938 1.7772
-0.13521 0.37496 1.7768
-0.13528 0.34946 1.7767
-0.13511 0.33136 1.7748
-0.13514 0.3062 1.7749
-0.13493 0.28719 1.7712
-0.13502 0.26173 1.772
-0.13493 0.24283 1.767
-0.1346 0.21767 1.7665
-0.13478 0.19917 1.768
-0.13504 0.17417 1.7701
-0.13503 0.1559 1.7706
-0.13501 0.13064 1.7713
-0.1351 0.11239 1.7697
-0.13518 0.087134 1.7704
-0.13525 0.068837 1.7719
-0.13519 0.043274 1.7708
-0.13468 0.024985 1.7671
-0.13385 -0.00030809 1.7541
-0.13381 -0.018512 1.7528
-0.13379 -0.043619 1.7523
-0.13433 -0.061876 1.7582
-0.13497 -0.087736 1.7731
-0.13577 -0.10604 1.7725
-0.13477 -0.13008 1.763
-0.13092 -0.14475 1.7059
-0.12399 -0.15982 1.5918
-0.099545 -0.14474 1.3186
-0.063494 -0.10246 0.82996
-0.054745 -0.095765 0.71699
-0.050962 -0.099277 0.66966
-0.049137 -0.10205 0.64523
-0.048389 -0.10884 0.63286
-0.048118 -0.1149 0.63032
-0.047421 -0.12304 0.62356
-0.047069 -0.12773 0.61608
-0.046897 -0.136 0.61071
-0.046485 -0.14173 0.60934
-0.046257 -0.14951 0.60326
-0.04602 -0.15461 0.60118
-0.045785 -0.16251 0.5973
-0.045657 -0.16827 0.59736
-0.045409 -0.17644 0.59396
-0.045273 -0.18234 0.59337
-0.045224 -0.19026 0.59038
-0.045166 -0.19605 0.59193
-0.04496 -0.20365 0.59207
-0.045006 -0.21002 0.59127
-0.045217 -0.21828 0.59054
-0.045194 -0.22414 0.59044
-0.045357 -0.23427 0.59129
-0.15492 0.67548 1.758
-0.15567 0.65183 1.764
-0.14918 0.61167 1.6988
-0.14989 0.58999 1.7063
-0.15664 0.59491 1.7815
-0.15744 0.57208 1.7893
-0.15773 0.55358 1.7895
-0.15785 0.52866 1.7912
-0.15785 0.50988 1.7905
-0.15755 0.48418 1.7852
-0.15763 0.46449 1.786
-0.15725 0.43907 1.7824
-0.15726 0.41976 1.7771
-0.15703 0.3945 1.7774
-0.15707 0.37585 1.7796
-0.15703 0.35009 1.7799
-0.15698 0.33136 1.7778
-0.15695 0.30604 1.775
-0.15668 0.28749 1.7726
-0.15655 0.26209 1.7737
-0.15639 0.24347 1.77
-0.15649 0.21782 1.7691
-0.15653 0.19968 1.7706
-0.15651 0.17429 1.7717
-0.15663 0.15611 1.7705
-0.15666 0.13089 1.7718
-0.15662 0.1125 1.7724
-0.15693 0.087135 1.7735
-0.15709 0.068897 1.7744
-0.15702 0.043433 1.7751
-0.15675 0.025029 1.7674
-0.1556 -0.00031681 1.7562
-0.15574 -0.018545 1.7607
-0.15498 -0.043607 1.7541
-0.15548 -0.061819 1.7565
-0.15567 -0.087404 1.7684
-0.15714 -0.10594 1.773
-0.157 -0.13114 1.7728
-0.15484 -0.1481 1.7599
-0.15024 -0.16814 1.6923
-0.14105 -0.17524 1.5886
-0.11359 -0.15834 1.2847
-0.075648 -0.11523 0.85711
-0.06328 -0.1063 0.71689
-0.059184 -0.10611 0.6685
-0.057604 -0.11282 0.64862
-0.05611 -0.11543 0.63728
-0.055707 -0.12356 0.62947
-0.055419 -0.1297 0.62794
-0.055 -0.13756 0.62202
-0.054546 -0.14315 0.61456
-0.05414 -0.15121 0.60983
-0.053939 -0.15638 0.61
-0.053501 -0.16413 0.60619
-0.05319 -0.16992 0.60311
-0.052957 -0.17774 0.60081
-0.052822 -0.18345 0.60008
-0.052736 -0.19129 0.59825
-0.052834 -0.19832 0.59787
-0.052863 -0.20602 0.59599
-0.052785 -0.21152 0.5962
-0.052747 -0.22119 0.59346
-0.053082 -0.22818 0.5978
-0.053411 -0.23601 0.60257
-0.17569 0.67313 1.7541
-0.17656 0.65114 1.7645
-0.1712 0.61408 1.7123
-0.17201 0.59231 1.7199
-0.17832 0.59535 1.7801
-0.17936 0.57236 1.7876
-0.17954 0.55464 1.7927
-0.17953 0.52944 1.7897
-0.17965 0.51101 1.7934
-0.1795 0.48495 1.7917
-0.17913 0.46557 1.7879
-0.1789 0.43955 1.7868
-0.17897 0.42057 1.7829
-0.17911 0.39494 1.7808
-0.17863 0.37581 1.78
-0.1787 0.35094 1.7827
-0.17867 0.33183 1.7793
-0.17875 0.30641 1.779
-0.17856 0.28781 1.775
-0.17835 0.26238 1.7771
-0.17798 0.24368 1.7749
-0.1782 0.21835 1.774
-0.17802 0.19991 1.7705
-0.17815 0.17478 1.7747
-0.17833 0.15634 1.7753
-0.17847 0.13108 1.7774
-0.1783 0.11271 1.7754
-0.17846 0.087268 1.7737
-0.17881 0.068909 1.7776
-0.17848 0.043451 1.7753
-0.17803 0.025005 1.7736
-0.17711 -0.00032743 1.7645
-0.17739 -0.018614 1.7643
-0.17674 -0.043661 1.7568
-0.17686 -0.061976 1.7586
-0.17677 -0.087114 1.7591
-0.1774 -0.10552 1.7725
-0.17734 -0.13115 1.7711
-0.1768 -0.14936 1.7697
-0.17552 -0.17344 1.7527
-0.17042 -0.18618 1.6887
-0.15992 -0.19766 1.5846
-0.13045 -0.17657 1.312
-0.094072 -0.13885 0.93725
-0.074015 -0.11643 0.73602
-0.068507 -0.11793 0.68099
-0.06602 -0.11953 0.65003
-0.063984 -0.12641 0.64235
-0.063767 -0.13108 0.63364
-0.063236 -0.13927 0.62796
-0.062789 -0.14525 0.62514
-0.062419 -0.15311 0.62225
-0.061757 -0.1586 0.61905
-0.061533 -0.16642 0.61202
-0.061508 -0.172 0.61243
-0.061267 -0.17989 0.60616
-0.061087 -0.18584 0.60738
-0.060897 -0.19375 0.60491
-0.061027 -0.2004 0.60745
-0.060756 -0.20874 0.60695
-0.061011 -0.21596 0.60612
-0.061205 -0.22475 0.60664
-0.061757 -0.23504 0.61546
-0.062388 -0.24585 0.62197
-0.1965 0.67097 1.7544
-0.19766 0.65038 1.7626
-0.19459 0.61948 1.7282
-0.1955 0.59751 1.7358
-0.20005 0.59465 1.7837
-0.20108 0.57241 1.7916
-0.20118 0.55482 1.7913
-0.2018 0.53006 1.7977
-0.2014 0.51094 1.7923
-0.20127 0.48497 1.7927
-0.20088 0.46632 1.7901
-0.20102 0.43986 1.7886
-0.20065 0.42148 1.7869
-0.20096 0.39583 1.7875
-0.20069 0.3768 1.7869
-0.20027 0.35093 1.7827
-0.20038 0.33259 1.7839
-0.2005 0.30679 1.7815
-0.20038 0.28809 1.7789
-0.20027 0.26261 1.7766
-0.19989 0.24402 1.776
-0.19991 0.21854 1.7763
-0.19979 0.20031 1.7761
-0.2001 0.17505 1.7755
-0.20031 0.15669 1.7747
-0.20028 0.13117 1.7767
-0.20031 0.11281 1.778
-0.20029 0.087419 1.7771
-0.20059 0.068998 1.7779
-0.2002 0.043535 1.7784
-0.19988 0.02503 1.772
-0.19902 -0.00033789 1.7664
-0.19923 -0.018664 1.7705
-0.19845 -0.043813 1.7616
-0.19832 -0.061943 1.7579
-0.19821 -0.087063 1.7618
-0.19849 -0.1054 1.7613
-0.19844 -0.13053 1.7685
-0.19837 -0.14917 1.7688
-0.19757 -0.17421 1.7665
-0.19619 -0.19166 1.76
-0.19145 -0.21048 1.6875
-0.1801 -0.21372 1.5875
-0.15927 -0.21181 1.424
-0.11158 -0.15753 0.98751
-0.090291 -0.13856 0.80287
-0.079341 -0.12856 0.70178
-0.075843 -0.13287 0.67308
-0.072388 -0.1327 0.64927
-0.07148 -0.14142 0.6345
-0.071317 -0.1476 0.63309
-0.071083 -0.15572 0.63172
-0.071036 -0.16208 0.63018
-0.070657 -0.1703 0.62796
-0.070466 -0.17563 0.62521
-0.070132 -0.18337 0.62076
-0.069922 -0.18926 0.62107
-0.069635 -0.19851 0.61649
-0.069545 -0.2047 0.61781
-0.069748 -0.21277 0.61796
-0.070146 -0.22196 0.62448
-0.07046 -0.23282 0.62941
-0.072352 -0.24451 0.64098
-0.075159 -0.26479 0.66862
-0.21762 0.67223 1.7524
-0.21852 0.6482 1.7604
-0.2166 0.62699 1.7465
-0.21761 0.60475 1.7542
-0.22144 0.59463 1.782
-0.22273 0.57302 1.7911
-0.22342 0.55587 1.7963
-0.22368 0.53142 1.7961
-0.22365 0.51221 1.798
-0.22362 0.48611 1.795
-0.22317 0.4668 1.7918
-0.22298 0.44111 1.7919
-0.22265 0.42178 1.7904
-0.22272 0.39663 1.7899
-0.22223 0.37738 1.7888
-0.22262 0.35151 1.7894
-0.22192 0.33283 1.7837
-0.22227 0.30745 1.7859
-0.22198 0.28871 1.7821
-0.22211 0.26286 1.7811
-0.22199 0.24425 1.7791
-0.22155 0.21871 1.7782
-0.22157 0.20042 1.7788
-0.22184 0.17513 1.7789
-0.22187 0.15686 1.7788
-0.22205 0.13155 1.7785
-0.22202 0.11288 1.7795
-0.22215 0.087429 1.779
-0.22227 0.069011 1.7798
-0.22194 0.04351 1.7793
-0.22155 0.025084 1.7724
-0.2207 -0.00035081 1.7687
-0.22106 -0.018715 1.7696
-0.22065 -0.043963 1.7675
-0.2199 -0.062189 1.7642
-0.2194 -0.087303 1.7623
-0.21974 -0.10543 1.7621
-0.21954 -0.1305 1.7616
-0.21974 -0.14901 1.7646
-0.21946 -0.1745 1.764
-0.21926 -0.1926 1.7611
-0.2188 -0.21679 1.7446
-0.21398 -0.22896 1.6941
-0.20607 -0.2435 1.6443
-0.18479 -0.23721 1.4807
-0.16301 -0.22998 1.3095
-0.11924 -0.17519 0.96521
-0.10176 -0.16067 0.81171
-0.087641 -0.14559 0.70089
-0.084644 -0.15112 0.67836
-0.081634 -0.15294 0.65759
-0.080229 -0.15993 0.64335
-0.079367 -0.16437 0.64178
-0.079084 -0.17292 0.64048
-0.079345 -0.18123 0.63917
-0.079954 -0.19035 0.64209
-0.079936 -0.19677 0.64286
-0.08004 -0.20652 0.64211
-0.080766 -0.21407 0.64737
-0.080469 -0.22308 0.64579
-0.081923 -0.23559 0.66007
-0.085356 -0.25388 0.68356
-0.11006 -0.33699 0.88981
-0.16425 -0.52363 1.325
-0.23828 0.66716 1.7492
-0.23944 0.64933 1.7582
-0.23838 0.62966 1.7572
-0.23949 0.6073 1.7649
-0.24262 0.59519 1.7814
-0.24462 0.573 1.7907
-0.24537 0.55554 1.7988
-0.24585 0.53202 1.8008
-0.24551 0.51296 1.7984
-0.24547 0.48775 1.8019
-0.24533 0.46799 1.7967
-0.24535 0.44203 1.7982
-0.24497 0.42229 1.7933
-0.24494 0.39709 1.7934
-0.24435 0.37814 1.7906
-0.24471 0.35229 1.7911
-0.24434 0.33316 1.7871
-0.24372 0.30781 1.7855
-0.24389 0.28901 1.786
-0.24395 0.26357 1.7842
-0.24376 0.24483 1.7838
-0.24383 0.21908 1.783
-0.24379 0.20072 1.7822
-0.2437 0.17542 1.7847
-0.24394 0.15713 1.7864
-0.24424 0.13155 1.7841
-0.24438 0.11313 1.7852
-0.24428 0.087515 1.7817
-0.2444 0.069095 1.7824
-0.24367 0.043501 1.7804
-0.24342 0.025037 1.7784
-0.24268 -0.00036516 1.7698
-0.24268 -0.018761 1.7699
-0.2421 -0.044073 1.7694
-0.24187 -0.062362 1.7688
-0.24169 -0.087474 1.7651
-0.24153 -0.10555 1.7622
-0.24114 -0.13065 1.7605
-0.24112 -0.14888 1.7641
-0.24058 -0.17418 1.7623
-0.24118 -0.19271 1.7605
-0.23995 -0.21774 1.7555
-0.23942 -0.23451 1.7497
-0.23404 -0.25382 1.725
-0.22594 -0.26723 1.6711
-0.21938 -0.27683 1.6055
-0.20463 -0.27379 1.4834
-0.18327 -0.26625 1.3472
-0.14046 -0.214 1.0263
-0.12256 -0.19854 0.8967
-0.10755 -0.18345 0.78098
-0.099869 -0.18205 0.73545
-0.094905 -0.17939 0.69582
-0.093436 -0.18644 0.68448
-0.092136 -0.18968 0.67377
-0.091782 -0.19841 0.66968
-0.091582 -0.20478 0.66779
-0.092339 -0.2164 0.6754
-0.096302 -0.23292 0.70279
-0.10847 -0.27444 0.79653
-0.15451 -0.40288 1.1286
-0.19661 -0.53547 1.4384
-0.2309 -0.64505 1.6873
-0.23481 -0.68253 1.7181
-0.25875 0.66894 1.7473
-0.26095 0.65062 1.7566
-0.26069 0.63449 1.7624
-0.26189 0.6116 1.7701
-0.2643 0.59511 1.78
-0.266 0.57296 1.7924
-0.26709 0.55663 1.7976
-0.26769 0.53229 1.8029
-0.26794 0.51352 1.8019
-0.2681 0.48849 1.8014
-0.26711 0.46874 1.8033
-0.26753 0.44284 1.7991
-0.26675 0.42308 1.7954
-0.26707 0.39724 1.7959
-0.26649 0.37871 1.7942
-0.26659 0.35295 1.7941
-0.26599 0.33393 1.7908
-0.26586 0.30813 1.7885
-0.26601 0.28931 1.7856
-0.26569 0.26366 1.7891
-0.26589 0.24508 1.7851
-0.26572 0.21947 1.7864
-0.26582 0.20094 1.7851
-0.26592 0.17572 1.7848
-0.26599 0.15726 1.7875
-0.26627 0.13177 1.7885
-0.26571 0.11327 1.7852
-0.26589 0.087719 1.7866
-0.26602 0.069253 1.7873
-0.26572 0.043617 1.7823
-0.26541 0.025109 1.7783
-0.26381 -0.00037877 1.7748
