# .PCD v0.7 - Point Cloud Data file format
VERSION 0.7
FIELDS x y z
SIZE 4 4 4
TYPE F F F
COUNT 1 1 1
WIDTH 1942
HEIGHT 1
VIEWPOINT 0 0 0 1 0 0 0
POINTS 1942
DATA ascii
0.3014 0.061436 0.96406
0.28594 0.045177 0.91449
0.22045 0.027369 0.7078
0.21147 0.016512 0.67847
0.19863 0.0088485 0.63537
0.19805 -0.00024627 0.63673
0.19967 -0.0068997 0.64111
0.20167 -0.01622 0.64779
0.20294 -0.022977 0.64957
0.2026 -0.032231 0.65061
0.20465 -0.039492 0.65496
0.21075 -0.050045 0.66873
0.296 -0.080349 0.94865
0.30203 -0.09673 0.97337
0.31252 -0.1094 0.99914
0.309 -0.12258 0.99027
0.3125 -0.13451 1.0014
0.32074 -0.15297 1.0288
0.31418 -0.16042 1.0006
0.31549 -0.17578 1.0103
0.31496 -0.18626 1.0042
0.31162 -0.19715 0.99897
0.30932 -0.20706 0.99173
0.31195 -0.22104 0.99744
0.29984 -0.22416 0.9514
0.30026 -0.23953 0.95411
0.30747 -0.25309 0.9806
0.29852 -0.26188 0.95752
0.29636 -0.26657 0.94346
0.29687 -0.28093 0.94598
0.29848 -0.29463 0.95231
0.29287 -0.30281 0.93569
0.29677 -0.31582 0.94737
0.29388 -0.32549 0.93408
0.2912 -0.33031 0.9254
0.29522 -0.35235 0.94085
0.29719 -0.36122 0.9473
0.29711 -0.37713 0.95083
0.33024 0.42537 1.1038
0.30341 0.37345 1.0265
0.1859 0.22284 0.62097
0.18222 0.20981 0.61013
0.18205 0.20367 0.6062
0.18276 0.19512 0.60857
0.18326 0.18934 0.60956
0.18511 0.18236 0.6182
0.19178 0.18278 0.63965
0.19243 0.17422 0.64183
0.186 0.16186 0.62145
0.18188 0.14979 0.60606
0.17966 0.14111 0.59909
0.17909 0.13175 0.59443
0.17798 0.12522 0.5947
0.17705 0.11645 0.59076
0.17731 0.11025 0.59025
0.17706 0.10197 0.59161
0.17664 0.095937 0.59252
0.17739 0.087488 0.59419
0.17763 0.081462 0.59339
0.1799 0.07347 0.59934
0.18025 0.067881 0.6021
0.18185 0.059416 0.60317
0.1832 0.053609 0.61525
0.18729 0.046177 0.62527
0.19553 0.041374 0.65376
0.21247 0.034811 0.70889
0.20382 0.026327 0.6805
0.19664 0.01597 0.65602
0.19335 0.00899 0.64265
0.19254 -0.00023844 0.64271
0.1945 -0.0069446 0.64713
0.19501 -0.016302 0.64999
0.19569 -0.023098 0.65272
0.19736 -0.032795 0.65753
0.20029 -0.040217 0.66652
0.23697 -0.058684 0.78789
0.29796 -0.083981 0.98713
0.30439 -0.10095 1.0159
0.30467 -0.11141 1.0149
0.30367 -0.12546 1.013
0.30388 -0.13581 1.0118
0.30867 -0.15294 1.0273
0.30824 -0.16339 1.0258
0.30762 -0.17776 1.0236
0.30776 -0.18791 1.0184
0.30807 -0.20405 1.0194
0.30752 -0.21436 1.0175
0.30917 -0.23015 1.0273
0.30855 -0.24039 1.0251
0.30462 -0.25235 1.0103
0.30119 -0.25958 1.004
0.29621 -0.2681 0.98378
0.2955 -0.27765 0.98133
0.29611 -0.29389 0.98305
0.29826 -0.30531 0.99012
0.29896 -0.31929 0.98633
0.29913 -0.33282 1.0041
0.30157 -0.34785 0.99999
0.29709 -0.35512 0.99695
0.29334 -0.36308 0.9737
0.29244 -0.37207 0.97059
0.2944 -0.38791 0.97741
0.33213 0.4451 1.1553
0.18667 0.24073 0.65208
0.17876 0.22328 0.62066
0.17516 0.21043 0.60892
0.17463 0.20324 0.60697
0.17532 0.19534 0.60959
0.17593 0.18957 0.61128
0.17717 0.18183 0.61434
0.17703 0.17531 0.61404
0.17465 0.16429 0.60666
0.16986 0.15371 0.58975
0.16992 0.14498 0.58836
0.16886 0.13911 0.58723
0.16841 0.12956 0.58378
0.16776 0.12327 0.58479
0.1673 0.11466 0.58096
0.16674 0.10836 0.57996
0.16675 0.10006 0.58127
0.16669 0.093533 0.57971
0.16703 0.086058 0.58334
0.16733 0.080312 0.58394
0.16891 0.072367 0.58833
0.17033 0.066484 0.59141
0.17169 0.058624 0.59269
0.17236 0.052496 0.60218
0.17409 0.044556 0.60505
0.17683 0.038886 0.61618
0.18015 0.030519 0.62052
0.1869 0.024984 0.64945
0.18699 0.015736 0.64972
0.18612 0.0090297 0.64758
0.18689 -0.00022962 0.64929
0.18753 -0.0069925 0.64951
0.18812 -0.016383 0.65469
0.18972 -0.02329 0.65645
0.19069 -0.033034 0.6623
0.2195 -0.045851 0.7624
0.287 -0.073985 0.99112
0.30692 -0.090621 1.0545
0.30833 -0.10617 1.0733
0.31165 -0.11909 1.0802
0.3112 -0.13447 1.0804
0.30945 -0.14449 1.0791
0.30809 -0.15963 1.0721
0.30766 -0.17061 1.0705
0.31366 -0.18922 1.0859
0.31504 -0.20108 1.0907
0.3143 -0.21626 1.088
0.31639 -0.22986 1.0947
0.31556 -0.24502 1.0917
0.30673 -0.24806 1.0612
0.30092 -0.25998 1.0432
0.29996 -0.26791 1.0408
0.29698 -0.28106 1.0253
0.3005 -0.29399 1.0379
0.29946 -0.30783 1.0365
0.3011 -0.32078 1.0441
0.30508 -0.34107 1.0583
0.31325 -0.36041 1.0854
0.31003 -0.37447 1.0757
0.30775 -0.38155 1.0654
0.3053 -0.39319 1.0527
0.29964 -0.3933 1.0288
0.28969 -0.40046 1.0051
0.19343 0.26951 0.70093
0.17169 0.2304 0.62421
0.17032 0.22147 0.6143
0.16842 0.21102 0.61236
0.1678 0.20382 0.60871
0.1684 0.19486 0.6088
0.16898 0.18969 0.61022
0.16961 0.18163 0.61249
0.16314 0.16957 0.59237
0.16197 0.15883 0.58636
0.16055 0.1523 0.5826
0.15962 0.14281 0.57953
0.15992 0.13704 0.58033
0.15907 0.12782 0.5765
0.15933 0.12092 0.57528
0.15829 0.11293 0.57566
0.1582 0.10689 0.57274
0.15799 0.098715 0.57262
0.15825 0.092933 0.57352
0.15888 0.084957 0.57467
0.1591 0.079818 0.57688
0.15998 0.071652 0.57988
0.16016 0.065695 0.58188
0.16158 0.057638 0.58703
0.16244 0.052086 0.58803
0.16353 0.044037 0.59574
0.16633 0.038268 0.60155
0.16831 0.029854 0.60988
0.17271 0.024158 0.62031
0.17525 0.015481 0.63349
0.17835 0.0090611 0.64937
0.17967 -0.00022046 0.6516
0.18038 -0.0070249 0.65286
0.18232 -0.016515 0.65873
0.18329 -0.023596 0.66478
0.19125 -0.03462 0.69393
0.256 -0.055646 0.92337
0.29508 -0.079823 1.0605
0.31274 -0.096316 1.1335
0.3192 -0.11537 1.1556
0.31891 -0.12733 1.1545
0.31773 -0.1435 1.1527
0.31475 -0.15388 1.1452
0.31627 -0.17089 1.146
0.31583 -0.18257 1.1443
0.32264 -0.20312 1.1689
0.32334 -0.21565 1.1699
0.32508 -0.23422 1.1821
0.32352 -0.24464 1.1674
0.32284 -0.26226 1.1735
0.32201 -0.27236 1.1617
0.31516 -0.28277 1.1351
0.30339 -0.28396 1.1029
0.30242 -0.29878 1.0992
0.30244 -0.30942 1.0965
0.31089 -0.33254 1.121
0.31153 -0.34634 1.1274
0.31591 -0.36865 1.14
0.31503 -0.38064 1.1367
0.30934 -0.38961 1.1243
0.29881 -0.38796 1.0845
0.29634 -0.40184 1.0798
0.29542 -0.40939 1.0763
0.29058 -0.41931 1.0533
0.19187 0.28004 0.72846
0.16631 0.23306 0.63087
0.16326 0.22207 0.61597
0.16212 0.21275 0.61617
0.16129 0.2055 0.61359
0.16026 0.195 0.61018
0.1601 0.18862 0.60806
0.15476 0.17409 0.58865
0.15356 0.16619 0.58169
0.15204 0.15673 0.57829
0.15203 0.15096 0.57552
0.15129 0.14118 0.57391
0.1508 0.13536 0.57427
0.15085 0.12696 0.5707
0.14968 0.12063 0.56716
0.14974 0.11195 0.56736
0.14977 0.10596 0.56578
0.15012 0.098072 0.5671
0.15009 0.09251 0.56736
0.15137 0.084712 0.57352
0.15094 0.078701 0.57227
0.15184 0.070791 0.57642
0.15226 0.06498 0.57788
0.15336 0.056938 0.58057
0.15423 0.05137 0.58453
0.15484 0.043399 0.5887
0.15679 0.037824 0.5959
0.1583 0.029573 0.60363
0.1611 0.0235 0.61172
0.16415 0.015071 0.62246
0.16735 0.0089123 0.63506
0.17215 -0.00021115 0.65168
0.17378 -0.0070778 0.66085
0.1841 -0.017481 0.69818
0.18455 -0.024772 0.70124
0.24556 -0.046188 0.92668
0.28097 -0.064129 1.0647
0.30006 -0.084829 1.1378
0.31243 -0.1007 1.1789
0.31422 -0.11899 1.1904
0.31392 -0.13125 1.1892
0.31029 -0.14519 1.179
0.30561 -0.15631 1.1583
0.30507 -0.17269 1.1561
0.31078 -0.18786 1.1779
0.3129 -0.2075 1.1905
0.3151 -0.21997 1.1943
0.31989 -0.24117 1.2167
0.31784 -0.25254 1.204
0.31699 -0.267 1.1974
0.31693 -0.27939 1.1948
0.316 -0.29514 1.1836
0.31004 -0.3057 1.1732
0.30904 -0.32165 1.1693
0.30764 -0.33023 1.1649
0.30657 -0.34576 1.1607
0.30577 -0.3569 1.1575
0.31159 -0.38271 1.1809
0.31072 -0.39394 1.1775
0.30905 -0.40794 1.1713
0.3033 -0.40989 1.1451
0.29699 -0.417 1.1233
0.29397 -0.42572 1.1027
0.29022 -0.43773 1.0976
0.28395 0.43258 1.1378
0.18431 0.27153 0.7336
0.15889 0.22772 0.63294
0.15604 0.21396 0.6202
0.15492 0.20605 0.61522
0.1528 0.19469 0.61047
0.14685 0.18123 0.58631
0.14649 0.17233 0.58286
0.14446 0.16438 0.5765
0.14453 0.15502 0.57535
0.14341 0.14879 0.57346
0.14317 0.14081 0.56825
0.143 0.1344 0.56595
0.14171 0.12591 0.56315
0.14106 0.11941 0.55984
0.14146 0.1108 0.56133
0.14169 0.10513 0.56493
0.14242 0.097351 0.56625
0.14265 0.091611 0.56573
0.14295 0.084158 0.56688
0.14315 0.078414 0.56952
0.14383 0.070493 0.573
0.14422 0.064752 0.57451
0.14513 0.056902 0.57592
0.14571 0.05105 0.58046
0.14661 0.043 0.58277
0.14807 0.037396 0.58908
0.14964 0.029174 0.59202
0.15059 0.023368 0.59979
0.15394 0.01491 0.6092
0.15641 0.0086933 0.61989
0.1608 -0.00019703 0.63746
0.17614 -0.007481 0.7004
0.17659 -0.017556 0.7035
0.23453 -0.033131 0.93132
0.26891 -0.053221 1.0684
0.28625 -0.068491 1.1362
0.30088 -0.088932 1.1944
0.30962 -0.10396 1.224
0.30927 -0.12138 1.2225
0.30515 -0.13348 1.2161
0.30468 -0.15057 1.2117
0.30069 -0.16088 1.1946
0.30016 -0.17876 1.1999
0.30253 -0.1916 1.2024
0.30907 -0.21326 1.2275
0.30857 -0.22651 1.2254
0.31247 -0.2462 1.2458
0.3119 -0.25863 1.2412
0.31106 -0.27317 1.2351
0.30931 -0.28531 1.225
0.30685 -0.30195 1.2209
0.30771 -0.31574 1.218
0.31005 -0.33535 1.2269
0.31005 -0.34803 1.2316
0.30821 -0.36439 1.2271
0.30842 -0.37592 1.2237
0.30871 -0.39196 1.2202
0.30831 -0.40586 1.219
0.30661 -0.42167 1.214
0.30242 -0.43125 1.2054
0.29529 -0.43611 1.1716
0.29254 -0.44494 1.1569
0.29324 -0.46183 1.1516
0.2964 0.48506 1.2345
0.26843 0.40579 1.0873
0.16061 0.24124 0.67226
0.15012 0.21636 0.62577
0.14544 0.20307 0.61016
0.13943 0.18647 0.58373
0.13878 0.18043 0.58218
0.13747 0.17016 0.57556
0.13687 0.16298 0.57271
0.13644 0.15453 0.57134
0.13604 0.14835 0.56783
0.13453 0.13878 0.5639
0.13384 0.13243 0.56261
0.1339 0.12418 0.55939
0.13417 0.11851 0.55989
0.13453 0.11084 0.56202
0.13445 0.105 0.5617
0.13459 0.097146 0.56332
0.13481 0.091364 0.56348
0.13534 0.083562 0.56538
0.13553 0.078094 0.5655
0.13617 0.070243 0.56942
0.13646 0.064582 0.5739
0.13771 0.056736 0.57583
0.13798 0.050994 0.57651
0.13863 0.042837 0.58095
0.13959 0.037067 0.58434
0.14061 0.028864 0.59034
0.14205 0.023072 0.59325
0.14377 0.014763 0.60173
0.1459 0.0086027 0.61103
0.14991 -0.00018359 0.62744
0.15359 -0.0068419 0.64275
0.16818 -0.017568 0.7028
0.23282 -0.034626 0.97675
0.27007 -0.056242 1.1291
0.28789 -0.072161 1.2051
0.2968 -0.092335 1.2415
0.30763 -0.10879 1.281
0.30753 -0.12703 1.2833
0.30724 -0.14011 1.282
0.30101 -0.15597 1.2606
0.29688 -0.16735 1.2391
0.29787 -0.18499 1.2498
0.29821 -0.19845 1.248
0.29906 -0.21609 1.2515
0.30047 -0.23183 1.2621
0.30271 -0.25016 1.2626
0.30293 -0.26371 1.2643
0.30211 -0.28109 1.2607
0.3028 -0.29422 1.2645
0.30283 -0.31251 1.2629
0.30272 -0.32547 1.2661
0.3028 -0.34243 1.2618
0.30273 -0.35464 1.2594
0.30545 -0.37769 1.2642
0.30795 -0.39503 1.2779
0.30679 -0.41188 1.2729
0.30511 -0.42175 1.264
0.30138 -0.4358 1.255
0.2983 -0.44198 1.2377
0.29077 -0.45065 1.2076
0.28399 -0.45305 1.1727
0.2706 -0.44752 1.1254
0.30146 0.50341 1.3208
0.2554 0.40674 1.0899
0.15536 0.24814 0.68671
0.14104 0.21545 0.62003
0.13214 0.19473 0.5828
0.13169 0.18638 0.58196
0.12992 0.17707 0.57228
0.12974 0.16853 0.57132
0.12892 0.16167 0.56856
0.12894 0.15347 0.56787
0.12667 0.14582 0.5633
0.12708 0.13751 0.56111
0.12635 0.13147 0.55849
0.12672 0.12418 0.55872
0.12643 0.11834 0.55918
0.12678 0.11083 0.56067
0.12701 0.10461 0.5598
0.12741 0.096834 0.56022
0.12727 0.091078 0.56112
0.12788 0.083325 0.56371
0.12833 0.077593 0.56452
0.12907 0.069846 0.56713
0.12938 0.064153 0.56778
0.1299 0.056539 0.57201
0.13099 0.050648 0.57501
0.13135 0.04272 0.57671
0.13202 0.036938 0.58102
0.13295 0.028785 0.58635
0.13372 0.022836 0.59021
0.13603 0.014604 0.5951
0.13747 0.0084794 0.60294
0.13986 -0.00017337 0.61292
0.14294 -0.0067191 0.63019
0.14704 -0.016225 0.64565
0.21912 -0.034243 0.96947
0.26009 -0.056966 1.1431
0.28614 -0.076242 1.2645
0.29378 -0.096605 1.2962
0.29892 -0.11153 1.315
0.30284 -0.13253 1.338
0.30235 -0.14617 1.3321
0.30142 -0.16435 1.326
0.29917 -0.17678 1.3201
0.29787 -0.19454 1.3125
0.29201 -0.20442 1.2855
0.28924 -0.22037 1.2713
0.29117 -0.23617 1.2815
0.29047 -0.25407 1.2783
0.29141 -0.26769 1.2852
0.29223 -0.28691 1.2852
0.2939 -0.30193 1.291
0.29384 -0.31975 1.2928
0.29499 -0.33506 1.2976
0.29641 -0.35449 1.3025
0.29971 -0.37268 1.3212
0.30061 -0.39548 1.3229
0.30711 -0.41431 1.3402
0.30595 -0.43198 1.3349
0.30123 -0.43824 1.3193
0.29614 -0.45319 1.3047
0.29297 -0.45947 1.2877
0.29173 -0.47586 1.282
0.29266 -0.49295 1.2786
0.29335 -0.51327 1.2938
0.29556 0.53045 1.3856
0.21667 0.37462 1.0133
0.13609 0.2274 0.63298
0.126 0.2023 0.58549
0.12498 0.19491 0.58337
0.12335 0.18398 0.57452
0.12218 0.17641 0.56926
0.12216 0.16748 0.56782
0.12108 0.16133 0.56466
0.12048 0.15197 0.56065
0.11934 0.1447 0.55619
0.11972 0.13679 0.55646
0.11927 0.13115 0.5545
0.11921 0.12338 0.55835
0.11931 0.11787 0.55768
0.11963 0.1102 0.55918
0.11985 0.10427 0.55864
0.12025 0.096522 0.55997
0.1203 0.090939 0.5589
0.12069 0.083366 0.56288
0.12081 0.077414 0.56468
0.12154 0.069747 0.56693
0.12212 0.064104 0.56758
0.12294 0.056176 0.57155
0.12315 0.050368 0.57294
0.12368 0.04258 0.5746
0.12452 0.036834 0.57857
0.1254 0.028707 0.58294
0.12634 0.022767 0.5881
0.12709 0.014443 0.59394
0.12895 0.0084284 0.59852
0.13088 -0.0001638 0.60558
0.13345 -0.0066132 0.61978
0.13599 -0.015833 0.63519
0.14762 -0.0243 0.68773
0.2431 -0.056075 1.1329
0.27898 -0.078241 1.3007
0.28945 -0.10019 1.3467
0.29007 -0.11456 1.351
0.29236 -0.13528 1.361
0.29324 -0.14964 1.3667
0.29525 -0.17045 1.3711
0.29668 -0.18491 1.3848
0.29614 -0.20429 1.3821
0.29573 -0.21803 1.372
0.29499 -0.23679 1.3664
0.28902 -0.2473 1.346
0.28833 -0.26507 1.3373
0.2876 -0.27937 1.34
0.28739 -0.29834 1.3381
0.28899 -0.31222 1.3377
0.29273 -0.33742 1.3554
0.29734 -0.35358 1.3771
0.29892 -0.37825 1.3838
0.30007 -0.39406 1.3888
0.29901 -0.41257 1.3775
0.30062 -0.42876 1.396
0.29559 -0.44639 1.3807
0.29476 -0.45947 1.3766
0.29357 -0.47734 1.3708
0.30206 -0.50147 1.4062
0.30216 -0.52014 1.4016
0.30388 -0.53896 1.4086
0.30251 -0.55665 1.402
0.26314 0.50729 1.2993
0.13871 0.25248 0.68865
0.12017 0.21346 0.59322
0.11902 0.20236 0.58637
0.11652 0.19292 0.57767
0.11562 0.18218 0.57013
0.11491 0.1759 0.56598
0.11419 0.16711 0.56694
0.11352 0.15976 0.55993
0.11257 0.15026 0.55523
0.11272 0.14436 0.55239
0.11265 0.13679 0.55368
0.11239 0.13097 0.55447
0.11249 0.12341 0.55613
0.1123 0.11761 0.5548
0.11298 0.10991 0.55628
0.11315 0.10398 0.5573
0.11343 0.096303 0.55864
0.11331 0.090472 0.55952
0.11373 0.082958 0.56139
0.11381 0.07749 0.56282
0.11439 0.069551 0.56438
0.11461 0.063815 0.56696
0.11546 0.056059 0.5702
0.11604 0.050423 0.57077
0.11659 0.042513 0.57408
0.11704 0.036642 0.57638
0.11791 0.028623 0.58109
0.11886 0.022712 0.585
0.11965 0.014408 0.5905
0.12095 0.0084078 0.59569
0.12225 -0.00015564 0.60525
0.12393 -0.0065233 0.61159
0.1265 -0.015585 0.6233
0.12916 -0.022556 0.64131
0.15209 -0.037345 0.75369
0.26864 -0.079501 1.3238
0.2765 -0.10172 1.3632
0.28472 -0.11882 1.4038
0.2896 -0.1415 1.4243
0.28932 -0.15617 1.4228
0.28889 -0.17695 1.4206
0.29252 -0.19381 1.4331
0.292 -0.21412 1.4328
0.29205 -0.22916 1.4381
0.29143 -0.24929 1.4351
0.29131 -0.26451 1.4381
0.2906 -0.28446 1.4344
0.28793 -0.29715 1.4221
0.28715 -0.31672 1.418
0.29181 -0.33459 1.4302
0.29396 -0.35691 1.4455
0.29475 -0.37476 1.4468
0.2936 -0.39428 1.4371
0.2906 -0.4044 1.4354
0.28871 -0.42338 1.4301
0.2888 -0.438 1.4299
0.28789 -0.45686 1.4255
0.2888 -0.47864 1.4311
0.29482 -0.50356 1.4615
0.30028 -0.52985 1.4792
0.30013 -0.54874 1.4726
0.29957 -0.56226 1.471
0.29866 -0.58346 1.4706
0.1528 0.30591 0.80173
0.11889 0.23111 0.6263
0.11273 0.21254 0.59363
0.11058 0.19938 0.58143
0.10894 0.19106 0.57221
0.1081 0.18173 0.56649
0.10747 0.17496 0.56599
0.10667 0.16631 0.56172
0.10556 0.15816 0.55528
0.10526 0.15004 0.55245
0.10519 0.14439 0.55281
0.10543 0.13658 0.55423
0.10553 0.13062 0.55327
0.10558 0.12304 0.55487
0.10552 0.11711 0.55564
0.1058 0.10956 0.55715
0.10598 0.10385 0.55625
0.10656 0.096152 0.5585
0.10656 0.090412 0.55941
0.10696 0.0828 0.56152
0.10693 0.077107 0.56231
0.10749 0.069496 0.56509
0.10783 0.063742 0.56512
0.10848 0.056039 0.56907
0.10881 0.050232 0.5701
0.10947 0.042381 0.57467
0.10976 0.036552 0.57563
0.11035 0.02846 0.58213
0.11083 0.022567 0.58377
0.11236 0.014386 0.58675
0.11276 0.0083536 0.5936
0.11408 -0.00014788 0.59976
0.11548 -0.0064775 0.60773
0.11747 -0.015398 0.61464
0.12031 -0.022266 0.62975
0.12762 -0.033155 0.67171
0.25811 -0.081724 1.3615
0.26845 -0.10457 1.4082
0.27753 -0.12383 1.4621
0.27799 -0.14471 1.4667
0.28327 -0.16288 1.4868
0.28413 -0.18434 1.4857
0.28429 -0.2006 1.4939
0.28378 -0.22162 1.4911
0.28337 -0.23665 1.4844
0.28119 -0.25657 1.4767
0.28072 -0.26986 1.4742
0.27946 -0.28948 1.4636
0.27894 -0.30485 1.4607
0.28007 -0.32852 1.4738
0.28388 -0.34757 1.482
0.28538 -0.36992 1.494
0.28499 -0.38536 1.4978
0.28405 -0.40543 1.4927
0.27895 -0.41245 1.4587
0.27795 -0.43181 1.4532
0.28664 -0.463 1.5074
0.28956 -0.49057 1.5157
0.28931 -0.50561 1.5241
0.29296 -0.53194 1.53
0.2932 -0.55026 1.5323
0.29194 -0.56986 1.5255
0.29011 -0.58149 1.5186
0.28477 -0.59198 1.4965
0.11829 0.25359 0.66494
0.10711 0.22092 0.59762
0.1047 0.20994 0.58592
0.10294 0.19862 0.57619
0.10183 0.19043 0.57123
0.10084 0.18113 0.56598
0.10035 0.17463 0.5647
0.099088 0.16393 0.55599
0.098404 0.15806 0.55159
0.098656 0.15021 0.55292
0.098458 0.14431 0.55278
0.09878 0.13631 0.55314
0.098499 0.1301 0.55083
0.098739 0.1226 0.55364
0.098594 0.11709 0.55353
0.098826 0.10948 0.5563
0.098787 0.10377 0.5555
0.099402 0.096164 0.55838
0.099565 0.090307 0.55775
0.099862 0.082734 0.56089
0.10002 0.077029 0.56178
0.1004 0.069465 0.56344
0.10075 0.063712 0.56422
0.10139 0.05586 0.56715
0.10158 0.050301 0.57022
0.10227 0.042216 0.57324
0.10241 0.036527 0.57549
0.10344 0.028459 0.57741
0.10359 0.022518 0.58364
0.10433 0.014329 0.5862
0.10579 0.008328 0.59229
0.1064 -0.00014078 0.59517
0.10764 -0.006434 0.60416
0.10932 -0.015277 0.61062
0.11152 -0.022118 0.62204
0.11381 -0.031873 0.63834
0.17692 -0.059631 0.99168
0.26057 -0.10904 1.4664
0.26398 -0.12542 1.4722
0.26945 -0.15005 1.5132
0.27201 -0.16657 1.5225
0.27203 -0.18897 1.5233
0.2717 -0.20539 1.5263
0.27172 -0.22691 1.5255
0.27257 -0.24306 1.5231
0.27076 -0.2635 1.5157
0.27154 -0.28007 1.513
0.27093 -0.30159 1.5239
0.27244 -0.31939 1.5309
0.27353 -0.34102 1.5323
0.27296 -0.35616 1.529
0.27181 -0.377 1.5204
0.27119 -0.39191 1.5168
0.27555 -0.41987 1.5395
0.28332 -0.44732 1.5823
0.28623 -0.47431 1.5953
0.28631 -0.49261 1.5987
0.28624 -0.51588 1.5981
0.2844 -0.53233 1.5948
0.28427 -0.55301 1.5935
0.28357 -0.56727 1.5885
0.28235 -0.58463 1.5746
0.28039 -0.59839 1.5638
0.27881 -0.618 1.5556
0.10432 0.24152 0.63194
0.099629 0.22015 0.59812
0.097056 0.20969 0.58417
0.09505 0.19682 0.57192
0.094877 0.19043 0.57125
0.093869 0.18136 0.56422
0.092817 0.17238 0.55876
0.092022 0.16408 0.55479
0.09187 0.15811 0.5526
0.091918 0.15009 0.55319
0.091752 0.1444 0.55329
0.091964 0.13569 0.55281
0.091723 0.13013 0.55189
0.091998 0.12261 0.55356
0.091823 0.11702 0.55433
0.092069 0.10941 0.55527
0.092147 0.10373 0.55444
0.092463 0.096046 0.55626
0.092614 0.090392 0.55717
0.093027 0.082677 0.55968
0.093158 0.077039 0.56047
0.093563 0.069294 0.56349
0.09386 0.063821 0.56428
0.094464 0.05584 0.56653
0.09464 0.050262 0.56966
0.09527 0.042277 0.57302
0.095503 0.036424 0.57479
0.096176 0.028372 0.57849
0.096639 0.022515 0.57978
0.096927 0.014274 0.58508
0.097993 0.008319 0.58933
0.098937 -0.00013486 0.59465
0.10031 -0.0063738 0.60194
0.101 -0.015197 0.60676
0.10365 -0.021925 0.62155
0.1043 -0.031315 0.62854
0.12232 -0.044175 0.73599
0.24488 -0.10962 1.4734
0.2519 -0.12873 1.5182
0.25542 -0.1519 1.5388
0.25747 -0.16976 1.5517
0.25946 -0.19287 1.5552
0.2596 -0.20904 1.5565
0.25939 -0.23232 1.5545
0.25954 -0.24839 1.5549
0.26037 -0.27083 1.5544
0.26245 -0.29009 1.5812
0.26365 -0.31207 1.5783
0.26315 -0.32935 1.5784
0.26292 -0.35103 1.5759
0.26237 -0.36662 1.5724
0.26648 -0.39559 1.5985
0.27116 -0.4211 1.6278
0.27115 -0.44303 1.6248
0.27302 -0.46196 1.6354
0.27222 -0.48695 1.6353
0.27561 -0.50711 1.6477
0.27474 -0.53022 1.6488
0.27477 -0.54793 1.6438
0.27284 -0.56753 1.6368
0.27199 -0.58273 1.6343
0.27082 -0.60298 1.6269
0.27042 -0.61755 1.6202
0.26919 -0.63598 1.6125
0.096936 0.23988 0.62705
0.091818 0.21932 0.59223
0.088914 0.20796 0.57803
0.087994 0.19639 0.57065
0.087656 0.19014 0.56687
0.086609 0.17988 0.55971
0.085682 0.17236 0.55741
0.085452 0.1639 0.55533
0.085311 0.15767 0.55295
0.085137 0.15026 0.55333
0.085155 0.14344 0.55046
0.084996 0.13575 0.55229
0.085019 0.13031 0.55246
0.08513 0.12271 0.5536
0.08512 0.11696 0.55218
0.085412 0.10957 0.5537
0.085511 0.10374 0.554
0.085835 0.096048 0.55672
0.085917 0.090263 0.55627
0.086209 0.082748 0.55977
0.086411 0.077083 0.56044
0.086672 0.069345 0.56289
0.086833 0.063706 0.56521
0.087469 0.055942 0.56616
0.087808 0.050109 0.56929
0.088183 0.042265 0.57248
0.088517 0.036481 0.57459
0.088863 0.028326 0.57796
0.089596 0.022527 0.58036
0.089867 0.014271 0.58293
0.090555 0.0083183 0.58781
0.091318 -0.00012862 0.59467
0.092637 -0.006351 0.6005
0.093717 -0.015185 0.60766
0.094815 -0.021784 0.61735
0.096536 -0.031164 0.6267
0.10528 -0.040497 0.68331
0.18625 -0.089369 1.2029
0.23748 -0.13014 1.5436
0.24645 -0.1581 1.588
0.24702 -0.17481 1.5985
0.24778 -0.19864 1.6005
0.24903 -0.21655 1.6131
0.24898 -0.23959 1.6146
0.25034 -0.25852 1.6224
0.25091 -0.28221 1.625
0.2517 -0.30034 1.634
0.25165 -0.32354 1.6346
0.25237 -0.34245 1.6383
0.25473 -0.36974 1.6536
0.25859 -0.39019 1.6774
0.25878 -0.41533 1.6769
0.2594 -0.43488 1.6884
0.2604 -0.45774 1.6846
0.26059 -0.47564 1.6824
0.26032 -0.50345 1.6868
0.26096 -0.52002 1.6852
0.25996 -0.54173 1.6811
0.25922 -0.55791 1.6808
0.25923 -0.57957 1.6749
0.25844 -0.59655 1.6701
0.25733 -0.61792 1.6632
0.25741 -0.63473 1.658
0.25626 -0.65767 1.6589
0.087393 0.23427 0.61631
0.084005 0.21664 0.58868
0.082045 0.20733 0.57579
0.080896 0.19614 0.57136
0.080433 0.19021 0.56629
0.078945 0.17993 0.55942
0.078773 0.17248 0.55484
0.078851 0.1641 0.55587
0.078707 0.15787 0.55379
0.078427 0.15 0.55379
0.078493 0.14354 0.55078
0.078418 0.13592 0.55261
0.078097 0.13033 0.55114
0.078332 0.12271 0.55283
0.078342 0.11704 0.55219
0.078709 0.10946 0.55455
0.078688 0.10369 0.55445
0.078989 0.095992 0.55767
0.079023 0.090276 0.55722
0.079449 0.082653 0.55986
0.079749 0.077085 0.56093
0.079981 0.069383 0.56241
0.080076 0.063751 0.56453
0.080258 0.055808 0.56601
0.08081 0.050118 0.56817
0.08112 0.042164 0.5715
0.081486 0.036423 0.57388
0.081766 0.028341 0.57711
0.082223 0.022533 0.58012
0.08272 0.014272 0.58215
0.083562 0.0082716 0.5881
0.083987 -0.00012379 0.59268
0.085122 -0.0063399 0.59877
0.086012 -0.015112 0.60516
0.087259 -0.021808 0.61787
0.088667 -0.030986 0.62332
0.094121 -0.039927 0.6615
0.12059 -0.063126 0.84679
0.22768 -0.1356 1.5928
0.23246 -0.16215 1.6423
0.2343 -0.18131 1.6559
0.23627 -0.20564 1.6597
0.23628 -0.2233 1.6659
0.23686 -0.24839 1.6748
0.23787 -0.26633 1.6746
0.23807 -0.29244 1.6734
0.24077 -0.31041 1.6964
0.24231 -0.33829 1.7136
0.24405 -0.3581 1.7258
0.24509 -0.38486 1.7297
0.24657 -0.40434 1.7336
0.24656 -0.43094 1.7344
0.24726 -0.44949 1.7382
0.24829 -0.47482 1.7449
0.24782 -0.49446 1.7451
0.24864 -0.51797 1.7386
0.2489 -0.5385 1.7499
0.24795 -0.56207 1.7429
0.24728 -0.57903 1.7387
0.24608 -0.6015 1.7317
0.24609 -0.61822 1.7261
0.24427 -0.6392 1.718
0.24338 -0.65432 1.7083
0.24196 -0.67128 1.6882
0.079345 0.23319 0.60917
0.075709 0.21545 0.5843
0.074896 0.20711 0.57661
0.074074 0.1964 0.56894
0.072581 0.18788 0.56138
0.072209 0.17866 0.56024
0.072149 0.17171 0.55454
0.072108 0.16343 0.55448
0.071802 0.15755 0.55296
0.071745 0.14933 0.5506
0.071624 0.14375 0.55058
0.071462 0.13607 0.5517
0.071467 0.13019 0.55105
0.071658 0.12218 0.5532
0.071741 0.11659 0.55377
0.071941 0.1094 0.5553
0.071938 0.10336 0.55481
0.072258 0.096073 0.55783
0.072276 0.090245 0.5576
0.072618 0.08275 0.56074
0.072861 0.077141 0.56154
0.073173 0.069324 0.56324
0.07326 0.063551 0.56398
0.073337 0.055795 0.5655
0.073899 0.050068 0.56745
0.074114 0.042119 0.57146
0.074419 0.036333 0.57345
0.074694 0.028282 0.57583
0.075308 0.022565 0.58102
0.075607 0.014257 0.58292
0.076349 0.0082739 0.58751
0.076682 -0.00011905 0.59347
0.077674 -0.0063182 0.59785
0.078384 -0.015112 0.60145
0.07992 -0.021676 0.61443
0.081165 -0.030909 0.62374
0.084789 -0.039208 0.6553
0.10279 -0.058664 0.78978
0.21316 -0.13905 1.6471
0.21789 -0.16642 1.6842
0.21871 -0.18479 1.688
0.22019 -0.20974 1.6958
0.22091 -0.22813 1.7041
0.22083 -0.25309 1.7011
0.22159 -0.27057 1.7021
0.22198 -0.29618 1.7095
0.22326 -0.31681 1.7247
0.22466 -0.34303 1.7343
0.22623 -0.3622 1.7381
0.22653 -0.38812 1.7409
0.2273 -0.40906 1.7491
0.22749 -0.43367 1.7492
0.22875 -0.45543 1.7576
0.2294 -0.4814 1.7587
0.22994 -0.49969 1.7702
0.22936 -0.52528 1.7645
0.23057 -0.54402 1.7684
0.23064 -0.56942 1.7716
0.23031 -0.58607 1.7687
0.22971 -0.61156 1.7645
0.22901 -0.62705 1.7606
0.22821 -0.65175 1.7526
0.22748 -0.66531 1.7282
0.22669 -0.68344 1.7199
0.070461 0.2309 0.59911
0.068596 0.21471 0.5823
0.068095 0.20733 0.57776
0.066744 0.19549 0.56745
0.06589 0.18812 0.56213
0.06558 0.17883 0.55786
0.065485 0.17191 0.55528
0.065194 0.16346 0.55432
0.064954 0.15753 0.55325
0.064883 0.14962 0.55244
0.064832 0.14395 0.55134
0.064873 0.13587 0.55099
0.064877 0.12983 0.5509
0.065005 0.12235 0.55347
0.065006 0.11687 0.55332
0.065234 0.10947 0.55472
0.065304 0.10361 0.55527
0.065594 0.096209 0.55715
0.065611 0.090374 0.55808
0.065769 0.082777 0.56012
0.065842 0.076909 0.55986
0 0 -1
0 0 -1
0 0 -1
0 0 -1
0.066961 0.042171 0.57056
0.067327 0.036388 0.5741
0.06767 0.028287 0.57572
0.068204 0.022513 0.57971
0.06858 0.014275 0.58378
0.069087 0.0082955 0.5886
0.069553 -0.00011507 0.59143
0.070313 -0.0063134 0.5968
0.071036 -0.015089 0.60234
0.072398 -0.021661 0.61525
0.073349 -0.030949 0.62376
0.076663 -0.039216 0.65332
0.09138 -0.057753 0.7782
0.19803 -0.1427 1.6888
0.1997 -0.16819 1.6992
0.20077 -0.18713 1.7081
0.20167 -0.21197 1.7154
0.20226 -0.23116 1.7189
0.20279 -0.25593 1.7235
0.20354 -0.27544 1.7296
0.20454 -0.3012 1.7391
0.20507 -0.31982 1.7418
0.20588 -0.34594 1.7476
0.20661 -0.36482 1.7538
0.20744 -0.39219 1.7623
0.20817 -0.41193 1.7649
0.20852 -0.4387 1.7698
0.20924 -0.45819 1.7753
0.2094 -0.48463 1.7787
0.21018 -0.50299 1.7799
0.21051 -0.53053 1.7805
0.21095 -0.55029 1.7865
0.2111 -0.57489 1.7886
0.21181 -0.59535 1.7836
0.21095 -0.61878 1.7799
0.21008 -0.63626 1.7783
0.20909 -0.65888 1.7698
0.20833 -0.67254 1.7638
0.20651 -0.69152 1.7481
0.063218 0.22894 0.59499
0.061703 0.21496 0.58298
0.060979 0.20702 0.57845
0.059781 0.19555 0.56641
0.059541 0.18869 0.56152
0.058796 0.17911 0.5563
0.05881 0.17211 0.55586
0.058548 0.16337 0.55262
0.058333 0.15769 0.55134
0.058247 0.1498 0.55313
0.058222 0.14382 0.55195
0.058311 0.13604 0.55144
0.058202 0.12999 0.55159
0.058376 0.12251 0.55402
0.058391 0.11704 0.55289
0.058581 0.10961 0.55522
0.058678 0.10397 0.55548
0.058921 0.096327 0.55764
0.058887 0.090557 0.55782
0.059012 0.082753 0.55901
0 0 -1
0 0 -1
0 0 -1
0 0 -1
0 0 -1
0 0 -1
0.060369 0.036373 0.57365
0.060669 0.028316 0.57649
0.061238 0.022546 0.58009
0.061422 0.014301 0.58277
0.062039 0.008304 0.58884
0.062421 -0.00011096 0.59119
0.06299 -0.0063122 0.59759
0.063789 -0.015059 0.60301
0.064677 -0.021694 0.61338
0.065866 -0.030948 0.6246
0.068298 -0.038656 0.64888
0.080589 -0.056723 0.76373
0.17945 -0.14401 1.7022
0.18047 -0.16956 1.7112
0.18137 -0.18794 1.7204
0.18182 -0.21342 1.7234
0.18244 -0.23193 1.7292
0.18304 -0.25794 1.7345
0.18361 -0.27721 1.7405
0.18446 -0.30261 1.7471
0.18534 -0.32208 1.7524
0.18589 -0.34773 1.7596
0.18679 -0.36837 1.7698
0.18724 -0.3949 1.771
0.18782 -0.41475 1.7761
0.18834 -0.44055 1.7819
0.18867 -0.46121 1.7873
0.18923 -0.48577 1.7868
0.18973 -0.50736 1.7899
0.18996 -0.53379 1.7943
0.19031 -0.55293 1.7981
0.19085 -0.58005 1.8002
0.19069 -0.59875 1.8017
0.19083 -0.62497 1.8015
0.19096 -0.64497 1.7981
0.1905 -0.66812 1.7928
0.18989 -0.68439 1.7885
0.18896 -0.70677 1.7853
0.055693 0.22782 0.59721
0.054681 0.21524 0.58502
0.053856 0.20533 0.57232
0.052976 0.19528 0.56701
0.052763 0.18945 0.56058
0.052093 0.17923 0.55538
0.052057 0.17288 0.55534
0.05182 0.16348 0.55208
0.051701 0.15789 0.55194
0.051612 0.14981 0.55375
0.05159 0.14398 0.55257
0.051744 0.13639 0.55207
0.051737 0.13011 0.55222
0.051802 0.12302 0.55443
0.05179 0.11726 0.55426
0.052011 0.1099 0.55585
0.052043 0.10408 0.55663
0.052205 0.096385 0.558
0.052101 0.090535 0.55834
0 0 -1
0 0 -1
0 0 -1
0 0 -1
0 0 -1
0 0 -1
0 0 -1
0.053427 0.036475 0.57433
0.053751 0.028308 0.57733
0.054188 0.022531 0.58078
0.054336 0.014296 0.58318
0.054959 0.0083049 0.58639
0.055274 -0.00010778 0.59131
0.055808 -0.0063062 0.59793
0.056371 -0.015033 0.60373
0.057302 -0.021619 0.61411
0.058356 -0.031027 0.62534
0.060511 -0.038696 0.64965
0.069956 -0.055311 0.74765
0.15871 -0.14417 1.6998
0.1599 -0.16973 1.7132
0.16069 -0.18825 1.7224
0.161 -0.21373 1.7254
0.16164 -0.23245 1.7312
0.16212 -0.25822 1.7366
0.16309 -0.27751 1.7432
0.16353 -0.30346 1.7519
0.16421 -0.32253 1.7565
0.16457 -0.34828 1.7638
0.16556 -0.36888 1.773
0.16591 -0.39539 1.7731
0.16642 -0.41565 1.7798
0.16705 -0.44225 1.7863
0.16759 -0.46177 1.7932
0.16784 -0.48749 1.7954
0.16837 -0.50958 1.8024
0.16868 -0.5356 1.8043
0.16927 -0.55683 1.8095
0.16947 -0.58235 1.8091
0.1698 -0.60224 1.8113
0.16974 -0.62935 1.8094
0.16975 -0.64754 1.8139
0.16955 -0.67095 1.8115
0.16965 -0.69054 1.8096
0.1685 -0.71389 1.7946
0.048513 0.22943 0.59697
0.047707 0.21651 0.58786
0.046844 0.20551 0.57286
0.046152 0.19546 0.5678
0.045862 0.18962 0.56111
0.045381 0.17871 0.55591
0.045349 0.17304 0.55526
0.045129 0.16369 0.55261
0.0451 0.15821 0.55248
0.044999 0.14995 0.55303
0.044956 0.14412 0.55311
0.045005 0.13652 0.55303
0.045064 0.13051 0.55274
0.045127 0.12313 0.55504
0.045146 0.11746 0.55539
0.045301 0.10992 0.5566
0.045307 0.10411 0.55714
0.045469 0.096434 0.55755
0.045371 0.09055 0.55816
0 0 -1
0 0 -1
0 0 -1
0 0 -1
0 0 -1
0 0 -1
0 0 -1
0.046581 0.036514 0.57493
0.046812 0.028321 0.57635
0.047073 0.022547 0.58139
0.047433 0.014313 0.58379
0.047864 0.008316 0.58701
0.048138 -0.00010538 0.59251
0.048575 -0.0063096 0.59843
0.049094 -0.015045 0.60436
0.050062 -0.021591 0.61476
0.050879 -0.031065 0.62496
0.053069 -0.039156 0.65614
0.060645 -0.055223 0.74387
0.13816 -0.14403 1.7016
0.13926 -0.16982 1.7133
0.1399 -0.18846 1.7224
0.14022 -0.21391 1.7272
0.1408 -0.23266 1.7331
0.14113 -0.25823 1.7377
0.14169 -0.2775 1.7443
0.14251 -0.30375 1.7537
0.14306 -0.32291 1.7594
0.14347 -0.34925 1.7656
0.14421 -0.36946 1.775
0.14451 -0.39622 1.7789
0.14523 -0.41629 1.783
0.14551 -0.44383 1.7922
0.14601 -0.4628 1.7974
0.14655 -0.49012 1.7984
0.14688 -0.51026 1.8049
0.14724 -0.53677 1.8064
0.14784 -0.55747 1.814
0.14779 -0.58431 1.8143
0.14831 -0.60493 1.819
0.14858 -0.63124 1.8215
0.14835 -0.64966 1.8216
0.14835 -0.67565 1.821
0.14813 -0.69343 1.8204
0.14794 -0.7161 1.8116
0.040819 0.22663 0.59106
0.04057 0.21667 0.58833
0.039903 0.2069 0.57601
0.039274 0.19561 0.56906
0.039046 0.18997 0.56097
0.038652 0.17877 0.558
0.038602 0.17211 0.55573
0.038404 0.16387 0.55573
0.038405 0.15834 0.55443
0.038338 0.15015 0.55554
0.038288 0.14455 0.55484
0.038411 0.13663 0.55405
0.038374 0.13062 0.55307
0.038533 0.12323 0.55552
0.038499 0.11754 0.55587
0.038585 0.10993 0.55733
0.038578 0.10418 0.55791
0.038665 0.096516 0.55822
0.038631 0.090644 0.55898
0.038682 0.08274 0.56018
0 0 -1
0 0 -1
0 0 -1
0.039189 0.055825 0.56782
0.039451 0.050141 0.56836
0.039536 0.04237 0.57318
0.039614 0.036547 0.57536
0.039816 0.028348 0.57756
0.040075 0.022568 0.58202
0.040387 0.014328 0.58562
0.040619 0.0083076 0.58904
0.040982 -0.00010295 0.59407
0.041432 -0.0063134 0.59897
0.041824 -0.015064 0.60516
0.042639 -0.021606 0.61569
0.043327 -0.031131 0.62687
0.045556 -0.039425 0.66471
0.051631 -0.055266 0.74454
0.11763 -0.14414 1.7023
0.11836 -0.16979 1.7144
0.11901 -0.18858 1.7219
0.11936 -0.21408 1.7278
0.11988 -0.23243 1.7344
0.12015 -0.25843 1.7392
0.12056 -0.27754 1.7465
0.12134 -0.3038 1.7515
0.12178 -0.32309 1.7609
0.12233 -0.35006 1.7665
0.12298 -0.36999 1.7783
0.12309 -0.3967 1.7805
0.12377 -0.41646 1.7878
0.12391 -0.44438 1.7942
0.12447 -0.46438 1.799
0.12497 -0.49069 1.8015
0.12524 -0.51122 1.8091
0.12546 -0.53767 1.8118
0.12613 -0.55932 1.8175
0.12612 -0.58593 1.8182
0.12685 -0.60551 1.8235
0.12674 -0.63298 1.8266
0.12691 -0.65433 1.8309
0.12671 -0.67838 1.8289
0.12716 -0.69691 1.8239
0.12686 -0.72286 1.8226
0.033355 0.22471 0.58749
0.033269 0.21429 0.58011
0.033165 0.20718 0.57684
0.032426 0.19587 0.56961
0.032236 0.19002 0.56426
0.032073 0.17858 0.55838
0.031939 0.17222 0.55819
0.03187 0.16436 0.55758
0.031704 0.15844 0.55659
0.031644 0.15038 0.55618
0.031623 0.14481 0.55531
0.031733 0.13705 0.55657
0.031742 0.13114 0.55347
0.031879 0.12332 0.55593
0.031812 0.11762 0.55625
0.031851 0.11001 0.55832
0.03183 0.10438 0.55856
0.031982 0.096686 0.55994
0.031963 0.090876 0.56043
0.032043 0.083145 0.56177
0.032087 0.077435 0.56281
0.032249 0.069629 0.56585
0.032336 0.063879 0.5674
0.032527 0.056056 0.57072
0.032582 0.050325 0.57158
0.032621 0.042381 0.57361
0.032721 0.036502 0.57464
0.032849 0.028444 0.578
0.033234 0.022567 0.5832
0.033372 0.014341 0.58606
0.03351 0.008351 0.58953
0.033809 -0.00010091 0.5946
0.03428 -0.0063173 0.59963
0.034571 -0.01511 0.60902
0.035242 -0.021692 0.61536
0.03589 -0.031286 0.63389
0.038469 -0.040295 0.66922
0.045128 -0.059123 0.79597
0.097188 -0.14457 1.7044
0.097652 -0.16988 1.7157
0.098188 -0.18848 1.7232
0.098416 -0.21409 1.7291
0.09891 -0.23259 1.7357
0.099134 -0.2584 1.7402
0.099481 -0.27731 1.7484
0.10002 -0.30401 1.7528
0.10051 -0.32358 1.7622
0.10099 -0.35037 1.7677
0.10149 -0.37024 1.7796
0.10183 -0.39697 1.7833
0.1024 -0.41689 1.791
0.10259 -0.44468 1.7961
0.10311 -0.46506 1.8003
0.10332 -0.4917 1.8069
0.10368 -0.51173 1.8123
0.10383 -0.5393 1.8157
0.10434 -0.55975 1.8214
0.10441 -0.58802 1.828
0.10496 -0.60848 1.8308
0.10496 -0.63584 1.8311
0.10506 -0.65552 1.8362
0.10533 -0.68177 1.8315
0.10522 -0.70121 1.8335
0.10523 -0.72676 1.8345
0.026875 0.22828 0.5968
0.02617 0.214 0.58028
0.026151 0.20729 0.57715
0.025624 0.19697 0.57162
0.025525 0.19018 0.56458
0.025185 0.17925 0.56079
0.02513 0.17274 0.55866
0.025149 0.16447 0.55803
0.025027 0.15887 0.55779
0.025049 0.15075 0.5582
0.024947 0.14506 0.55615
0.025024 0.13719 0.55804
0.025036 0.13158 0.55701
0.025125 0.12366 0.55873
0.02513 0.11768 0.55717
0.025106 0.11007 0.55887
0.025074 0.10449 0.55972
0.025201 0.096774 0.56115
0.025188 0.091121 0.56175
0.025355 0.08336 0.56462
0.02539 0.077622 0.56544
0.025438 0.069733 0.56769
0.025546 0.064007 0.56897
0.025616 0.056215 0.57106
0.025711 0.050469 0.57193
0.02575 0.042426 0.57402
0.025847 0.036526 0.57741
0.025977 0.028474 0.58
0.026223 0.022666 0.58372
0.026308 0.014362 0.58714
0.026456 0.0083621 0.59392
0.026625 -9.9263e-05 0.59497
0.026994 -0.0063372 0.601
0.027309 -0.015134 0.61014
0.0277 -0.021705 0.61882
0.028404 -0.031362 0.63428
0.030745 -0.04118 0.68634
0.039181 -0.064826 0.87387
0.076544 -0.14473 1.7078
0.076934 -0.16997 1.7177
0.077329 -0.18858 1.7243
0.077511 -0.21418 1.7301
0.077847 -0.23271 1.7337
0.078082 -0.25854 1.7405
0.078466 -0.27745 1.7496
0.078784 -0.30406 1.755
0.0792 -0.32408 1.7619
0.079556 -0.35048 1.7687
0.079888 -0.37102 1.7792
0.080256 -0.39746 1.7848
0.08071 -0.41809 1.7924
0.080845 -0.44491 1.7977
0.081339 -0.46557 1.8046
0.081551 -0.49255 1.8102
0.081778 -0.51357 1.8175
0.082164 -0.54076 1.8206
0.082257 -0.56231 1.8274
0.082483 -0.58949 1.8304
0.082748 -0.60971 1.8336
0.08303 -0.63714 1.8352
0.083114 -0.65871 1.8395
0.083113 -0.68475 1.8393
0.083139 -0.70336 1.8426
0.083229 -0.73001 1.8424
0.02019 0.23465 0.61343
0.019238 0.21521 0.5808
0.019146 0.20831 0.5815
0.018777 0.19741 0.57231
0.01878 0.19025 0.56566
0.018498 0.17976 0.56253
0.018447 0.17348 0.55932
0.018408 0.16569 0.55916
0.018404 0.15911 0.55869
0.018358 0.15144 0.55869
0.018262 0.14515 0.5564
0.018316 0.1374 0.55865
0.018304 0.13173 0.55887
0.018353 0.12405 0.56048
0.018353 0.11814 0.55922
0.018359 0.11047 0.5604
0.018359 0.10457 0.5602
0.018436 0.096847 0.56287
0.018464 0.091296 0.56365
0.018543 0.083696 0.5661
0.018578 0.077933 0.56692
0.018625 0.070032 0.56854
0.018648 0.064224 0.56937
0.01871 0.05625 0.57124
0.018772 0.050491 0.57296
0.018854 0.042474 0.57523
0.01894 0.036672 0.57779
0.01899 0.028563 0.58062
0.019097 0.022688 0.58445
0.019211 0.014407 0.58893
0.019382 0.0083942 0.59497
0.019538 -9.8859e-05 0.59847
0.019717 -0.0063385 0.60243
0.019941 -0.015151 0.61043
0.020251 -0.021824 0.61911
0.020806 -0.031564 0.63457
0.023172 -0.042723 0.71241
0.034467 -0.07824 1.0536
0.055857 -0.14483 1.7086
0.056179 -0.17025 1.7202
0.056424 -0.18878 1.7234
0.056576 -0.21425 1.731
0.056807 -0.2328 1.7345
0.057008 -0.25851 1.7406
0.057328 -0.27789 1.7504
0.057593 -0.30418 1.7573
0.057857 -0.32441 1.7644
0.058095 -0.35069 1.7695
0.058342 -0.37128 1.78
0.058601 -0.39797 1.7886
0.058982 -0.41834 1.7959
0.059145 -0.44573 1.8022
0.059455 -0.46683 1.8066
0.059709 -0.49386 1.8151
0.059803 -0.51378 1.8192
0.06011 -0.54177 1.8246
0.060241 -0.56262 1.8357
0.060482 -0.5913 1.8332
0.060659 -0.61129 1.8378
0.060758 -0.63795 1.8459
0.061004 -0.66013 1.8483
0.060907 -0.68572 1.8416
0.061155 -0.7062 1.8509
0.06127 -0.73275 1.8462
0.013184 0.24229 0.62876
0.012362 0.2196 0.59585
0.012099 0.20836 0.58167
0.011901 0.19753 0.57303
0.011881 0.19043 0.57276
0.011796 0.18178 0.56422
0.011663 0.17409 0.56411
0.011644 0.16603 0.5617
0.011641 0.15915 0.56088
0.011616 0.15175 0.56022
0.011586 0.14605 0.56005
0.011598 0.13797 0.56039
0.011576 0.13193 0.55914
0.011604 0.12423 0.56076
0.011583 0.1185 0.56081
0.01163 0.11092 0.56265
0.011592 0.1049 0.5627
0.011646 0.09741 0.56459
0.011661 0.091595 0.56505
0.011686 0.083832 0.56731
0.011715 0.078038 0.56814
0.011751 0.070095 0.57005
0.011766 0.064335 0.57056
0.011802 0.056537 0.57238
0.011854 0.050654 0.57489
0.0119 0.042587 0.57745
0.011937 0.036729 0.58022
0.011956 0.028623 0.58183
0.012046 0.022711 0.58464
0.012112 0.014447 0.58933
0.012219 0.0083973 0.59519
0.012306 -9.8213e-05 0.599
0.012433 -0.0063912 0.60496
0.01256 -0.015236 0.61141
0.012903 -0.022003 0.62656
0.013268 -0.031657 0.64152
0.015645 -0.045509 0.76026
0.027374 -0.098743 1.3295
0.03518 -0.14487 1.711
0.03538 -0.1703 1.7207
0.035494 -0.18882 1.724
0.035628 -0.2143 1.7316
0.03578 -0.23286 1.7393
0.035902 -0.25857 1.7419
0.036081 -0.27826 1.7513
0.036282 -0.30401 1.758
0.036489 -0.32455 1.7649
0.036612 -0.35105 1.7734
0.036797 -0.37139 1.7816
0.036969 -0.39841 1.7891
0.037233 -0.41853 1.7976
0.037365 -0.44637 1.806
0.037575 -0.46749 1.8122
0.037694 -0.49462 1.8178
0.037887 -0.51493 1.823
0.038004 -0.54306 1.8277
0.038144 -0.56498 1.8373
0.038303 -0.59246 1.8401
0.038426 -0.61198 1.8465
0.038546 -0.64065 1.848
0.038671 -0.66205 1.8495
0.038689 -0.68785 1.8555
0.038784 -0.70767 1.8557
0.038796 -0.73468 1.852
0.0057205 0.25203 0.65181
0.0053406 0.22541 0.61066
0.0051113 0.20997 0.58299
0.0050039 0.19883 0.576
0.0049791 0.19182 0.57352
0.0049363 0.18213 0.56646
0.0049128 0.17475 0.56492
0.0048686 0.1667 0.56678
0.0048403 0.16052 0.56321
0.0048469 0.15237 0.56263
0.0048158 0.14613 0.56164
0.0048136 0.13833 0.56238
0.0048089 0.13206 0.56112
0.004806 0.12438 0.56271
0.0048034 0.1186 0.56196
0.004815 0.11108 0.56309
0.0048146 0.10528 0.56356
0.0048211 0.097651 0.56523
0.0048239 0.09178 0.56618
0.0048298 0.08397 0.56828
0.0048347 0.078096 0.57015
0.0048431 0.070587 0.57146
0.004846 0.064732 0.57302
0.004868 0.056693 0.57465
0.0048845 0.050782 0.57605
0.0049005 0.042696 0.57904
0.0049057 0.036923 0.58041
0.0049095 0.028731 0.58193
0.0049651 0.02284 0.58868
0.0049719 0.014479 0.59032
0.00502 0.0084545 0.59813
0.005101 -9.7912e-05 0.6026
0.0051395 -0.0064325 0.61054
0.0052107 -0.015325 0.61291
0.0053464 -0.022276 0.63384
0.0055245 -0.032285 0.65003
0.0070218 -0.049729 0.83041
0.013697 -0.1203 1.624
0.014452 -0.14488 1.7123
0.014541 -0.17031 1.7215
0.014596 -0.18878 1.7288
0.014662 -0.2143 1.7323
0.014731 -0.2329 1.7396
0.014802 -0.25872 1.7424
0.014877 -0.27832 1.7516
0.014944 -0.30404 1.7597
0.015057 -0.32502 1.7679
0.015142 -0.35155 1.7758
0.015259 -0.37206 1.7856
0.015327 -0.39941 1.7911
0.015433 -0.41947 1.7996
0.015485 -0.44715 1.8085
0.015594 -0.46765 1.8142
0.015672 -0.49583 1.8196
0.015757 -0.51724 1.8244
0.015879 -0.54405 1.8344
0.015919 -0.56704 1.8378
0.016003 -0.59289 1.8471
0.016093 -0.61635 1.8508
0.016164 -0.6421 1.8559
0.016248 -0.66289 1.8581
0.016236 -0.68912 1.8595
0.016321 -0.70968 1.858
0.016293 -0.7376 1.857
-0.0023444 0.26899 0.69765
-0.0021068 0.23015 0.62913
-0.0019975 0.21243 0.59101
-0.0019687 0.20017 0.58052
-0.0019683 0.19192 0.5736
-0.0019641 0.18289 0.57436
-0.0019758 0.17646 0.56814
-0.0019767 0.16728 0.56756
-0.0019772 0.16089 0.56342
-0.0019827 0.15321 0.56531
-0.0019903 0.14653 0.56226
-0.0019982 0.13873 0.56368
-0.0020018 0.13273 0.56373
-0.0020093 0.12483 0.56342
-0.0020192 0.11883 0.56398
-0.002033 0.11132 0.56537
-0.0020414 0.10564 0.56555
-0.0020546 0.097856 0.56696
-0.0020628 0.092087 0.56791
-0.0020773 0.084393 0.56935
-0.0020844 0.078635 0.57132
-0.0020958 0.070615 0.57278
-0.0021026 0.064928 0.57466
-0.0021161 0.056827 0.57623
-0.0021331 0.051028 0.57839
-0.0021388 0.042871 0.57993
-0.0021448 0.037056 0.58148
-0.0021592 0.028878 0.58526
-0.0021698 0.022901 0.58918
-0.0021904 0.014532 0.59528
-0.0022093 0.0085034 0.59839
-0.0022399 -9.8249e-05 0.60428
-0.0022583 -0.0064603 0.61263
-0.0022897 -0.015437 0.62344
-0.0023543 -0.022485 0.64075
-0.0025095 -0.033539 0.67745
-0.0041658 -0.067758 1.1343
-0.0062706 -0.12646 1.7044
-0.0062903 -0.145 1.7162
-0.0063125 -0.1704 1.7225
-0.0063133 -0.18877 1.7288
-0.0063377 -0.2143 1.7349
-0.006338 -0.23333 1.7396
-0.006345 -0.25922 1.7433
-0.0063599 -0.27831 1.7544
-0.0063588 -0.30432 1.7598
-0.0063945 -0.32521 1.7693
-0.0063888 -0.35207 1.7782
-0.0064228 -0.37216 1.787
-0.0064072 -0.3994 1.7954
-0.0064298 -0.42102 1.8028
-0.0064048 -0.44773 1.81
-0.0064295 -0.46853 1.8176
-0.0064137 -0.49672 1.8215
-0.0064135 -0.5174 1.8295
-0.0064031 -0.54469 1.8366
-0.0063909 -0.56708 1.8438
-0.0063747 -0.59462 1.8526
-0.0063782 -0.61634 1.8522
-0.0063311 -0.64313 1.8584
-0.0063188 -0.66309 1.8603
-0.0062775 -0.69068 1.8622
-0.0062331 -0.71027 1.865
-0.0061906 -0.73698 1.8616
-0.011706 0.29348 0.76343
-0.01028 0.24582 0.6668
-0.0094001 0.21671 0.60355
-0.0091045 0.20182 0.58634
-0.0089467 0.19302 0.57578
-0.0089528 0.18412 0.5754
-0.0088979 0.17675 0.5681
-0.0088912 0.16788 0.56949
-0.0088519 0.16153 0.56899
-0.0088705 0.15339 0.56578
-0.0088406 0.14712 0.56404
-0.0088579 0.13935 0.56594
-0.0088508 0.1332 0.56544
-0.0088906 0.12531 0.56551
-0.008857 0.11924 0.5665
-0.0089407 0.11194 0.56807
-0.008921 0.1059 0.56733
-0.0089574 0.098324 0.56874
-0.008973 0.092508 0.5697
-0.0090213 0.08455 0.57171
-0.009044 0.078744 0.57297
-0.0090609 0.070862 0.57477
-0.0090965 0.065125 0.57547
-0.009165 0.057112 0.57874
-0.0091888 0.051221 0.58119
-0.0092218 0.04306 0.58235
-0.0092547 0.03724 0.58472
-0.0093114 0.028916 0.58832
-0.0093602 0.022995 0.59012
-0.0094265 0.014678 0.5975
-0.009532 0.0085549 0.60113
-0.0096343 -9.9315e-05 0.60994
-0.0097711 -0.0065179 0.61988
-0.0099883 -0.015643 0.6299
-0.010245 -0.022894 0.6489
-0.01174 -0.036702 0.74223
-0.025148 -0.095414 1.5923
-0.026947 -0.12669 1.7097
-0.027103 -0.14545 1.7204
-0.027216 -0.17068 1.724
-0.027317 -0.18953 1.7286
-0.027402 -0.21497 1.7357
-0.027446 -0.23359 1.7432
-0.027507 -0.25935 1.7437
-0.027601 -0.2789 1.7555
-0.027738 -0.30529 1.7613
-0.027919 -0.3255 1.7716
-0.027985 -0.35259 1.7817
-0.028123 -0.37317 1.7873
-0.028227 -0.39943 1.796
-0.02832 -0.42098 1.8045
-0.028414 -0.44809 1.811
-0.028532 -0.46931 1.8196
-0.028557 -0.49708 1.8284
-0.02873 -0.51939 1.8339
-0.028742 -0.54648 1.8423
-0.028758 -0.56733 1.8468
-0.028817 -0.59653 1.8527
-0.028957 -0.61839 1.856
-0.028908 -0.64533 1.8626
-0.028951 -0.66636 1.8687
-0.028874 -0.6929 1.8653
-0.028907 -0.71312 1.8667
-0.028844 -0.74152 1.8661
-0.024642 0.34338 0.89386
-0.019516 0.261 0.70627
-0.017013 0.22295 0.61946
-0.016479 0.20524 0.59662
-0.016104 0.19581 0.5846
-0.015918 0.18443 0.57808
-0.015852 0.1777 0.57587
-0.015888 0.16834 0.5729
-0.015838 0.16238 0.57028
-0.015803 0.15397 0.56898
-0.015781 0.14787 0.5671
-0.01578 0.14012 0.56888
-0.015732 0.13378 0.56801
-0.015791 0.12594 0.56978
-0.015808 0.11993 0.57028
-0.015866 0.11211 0.56843
-0.015889 0.10643 0.56952
-0.01595 0.098531 0.57091
-0.015926 0.092631 0.57184
-0.016025 0.084648 0.57308
-0.01602 0.078969 0.57411
-0.016125 0.071187 0.57866
-0.016188 0.065362 0.57935
-0.016251 0.057279 0.58088
-0.016276 0.051308 0.583
-0.016369 0.043292 0.58688
-0.01647 0.037254 0.5878
-0.016523 0.029108 0.58969
-0.016639 0.023109 0.59683
-0.016811 0.01472 0.60074
-0.016914 0.0085664 0.60875
-0.017121 -0.00010051 0.61426
-0.017409 -0.0065625 0.62058
-0.017711 -0.01587 0.63621
-0.01885 -0.023909 0.67838
-0.02467 -0.043704 0.88304
-0.047523 -0.10206 1.7017
-0.047784 -0.12716 1.7137
-0.047978 -0.14544 1.7206
-0.048159 -0.17091 1.7259
-0.048315 -0.18947 1.7319
-0.048464 -0.21498 1.7376
-0.048548 -0.23375 1.7442
-0.048802 -0.25947 1.7478
-0.048913 -0.27901 1.758
-0.049194 -0.30593 1.7645
-0.049517 -0.32564 1.7747
-0.049646 -0.353 1.7816
-0.049927 -0.37405 1.7904
-0.050068 -0.40049 1.7988
-0.050342 -0.42203 1.8041
-0.050416 -0.44911 1.8112
-0.050616 -0.46977 1.8219
-0.050753 -0.49772 1.8308
-0.051116 -0.51976 1.8399
-0.051161 -0.54783 1.8438
-0.051403 -0.5699 1.8517
-0.051335 -0.59691 1.8596
-0.051508 -0.61824 1.8622
-0.051507 -0.64703 1.8693
-0.051719 -0.66751 1.8703
-0.051722 -0.69526 1.8663
-0.05171 -0.71383 1.8702
-0.051622 -0.74119 1.8727
-0.06869 0.66294 1.7205
-0.028556 0.26465 0.7177
-0.025475 0.23277 0.64482
-0.024412 0.20941 0.61334
-0.023596 0.19946 0.5955
-0.023227 0.187 0.58541
-0.022952 0.17844 0.57824
-0.022897 0.17059 0.57601
-0.022875 0.16283 0.57427
-0.022781 0.15517 0.57123
-0.02276 0.14829 0.56917
-0.022774 0.14043 0.57053
-0.022741 0.13446 0.56955
-0.022794 0.12624 0.57132
-0.022792 0.12027 0.57111
-0.022872 0.11264 0.57259
-0.022915 0.10694 0.57324
-0.022945 0.099065 0.57282
-0.022989 0.093279 0.57375
-0.023075 0.085249 0.57671
-0.023141 0.079456 0.57796
-0.023208 0.07141 0.57971
-0.023285 0.065489 0.58107
-0.023407 0.057473 0.58441
-0.023444 0.051724 0.58607
-0.023609 0.043528 0.58851
-0.02367 0.037568 0.59232
-0.023825 0.029248 0.59586
-0.024081 0.023239 0.60007
-0.024236 0.014815 0.60631
-0.024535 0.0086311 0.6112
-0.024897 -0.00010275 0.61815
-0.02534 -0.0066467 0.6306
-0.026262 -0.016285 0.65596
-0.031005 -0.027382 0.77482
-0.056892 -0.070617 1.4229
-0.068367 -0.10229 1.7053
-0.068668 -0.12746 1.7176
-0.068836 -0.14569 1.7204
-0.069083 -0.1711 1.7297
-0.069428 -0.18951 1.7333
-0.069592 -0.21489 1.7379
-0.069673 -0.23398 1.7438
-0.07002 -0.26008 1.7505
-0.07043 -0.27907 1.7576
-0.070781 -0.30646 1.7721
-0.071131 -0.32631 1.7815
-0.071365 -0.35385 1.786
-0.071707 -0.37452 1.7967
-0.072033 -0.40162 1.8058
-0.072284 -0.42212 1.8119
-0.072678 -0.45002 1.8158
-0.072948 -0.4711 1.8271
-0.072994 -0.49956 1.8332
-0.073535 -0.52085 1.8425
-0.073722 -0.54924 1.8496
-0.073971 -0.57034 1.8524
-0.074141 -0.59696 1.8606
-0.074251 -0.61985 1.8665
-0.074244 -0.6473 1.8686
-0.07461 -0.66949 1.8729
-0.074542 -0.69533 1.8743
-0.074563 -0.7161 1.8762
-0.074309 -0.74034 1.8672
-0.095549 0.69932 1.8404
-0.074576 0.53281 1.4512
-0.035429 0.24358 0.68247
-0.033198 0.2201 0.64092
-0.031494 0.20363 0.60918
-0.030735 0.1895 0.59358
-0.030364 0.1809 0.58674
-0.030148 0.1708 0.58023
-0.02995 0.16453 0.57506
-0.029866 0.15613 0.57632
-0.029772 0.14955 0.5724
-0.029869 0.14174 0.57081
-0.029751 0.13478 0.57157
-0.029849 0.12711 0.5718
-0.02983 0.12106 0.57269
-0.029943 0.11351 0.57501
-0.02999 0.10744 0.57431
-0.03009 0.099436 0.57528
-0.030065 0.093421 0.57625
-0.030277 0.08537 0.57883
-0.030295 0.079503 0.57966
-0.030389 0.071789 0.58369
-0.030453 0.065963 0.58432
-0.030556 0.057858 0.58673
-0.030794 0.051928 0.5879
-0.030872 0.043858 0.59201
-0.031049 0.037785 0.59551
-0.031332 0.029408 0.59947
-0.031577 0.023419 0.6057
-0.031931 0.014973 0.61074
-0.032282 0.0087509 0.61775
-0.032845 -0.00010586 0.63016
-0.03384 -0.0068069 0.64471
-0.036192 -0.017322 0.69781
-0.067375 -0.04555 1.2869
-0.08872 -0.084434 1.7041
-0.089306 -0.10266 1.7147
-0.08968 -0.12761 1.7204
-0.089936 -0.14592 1.7255
-0.090154 -0.17137 1.7303
-0.090512 -0.18963 1.7352
-0.090754 -0.21521 1.7375
-0.090869 -0.23422 1.7457
-0.091377 -0.26022 1.7524
-0.091762 -0.27989 1.7621
-0.092262 -0.30665 1.7715
-0.092864 -0.32777 1.7827
-0.093176 -0.35442 1.7881
