# .PCD v0.7 - Point Cloud Data file format
VERSION 0.7
FIELDS x y z
SIZE 4 4 4
TYPE F F F
COUNT 1 1 1
WIDTH 1968
HEIGHT 1
VIEWPOINT 0 0 0 1 0 0 0
POINTS 1968
DATA ascii
0.34245 0.42652 1.2
0.33521 0.40184 1.1652
0.33418 0.38938 1.1656
0.33586 0.37424 1.1656
0.34206 0.37185 1.186
0.3475 0.35915 1.2055
0.35285 0.34849 1.2282
0.35406 0.33337 1.2324
0.35966 0.32536 1.2542
0.35838 0.30771 1.2477
0.35917 0.29461 1.2504
0.3602 0.27756 1.2522
0.36093 0.26513 1.2547
0.35891 0.24592 1.2418
0.35491 0.23161 1.2337
0.35451 0.21367 1.2351
0.3521 0.19843 1.2225
0.3472 0.17994 1.2229
0.34146 0.16399 1.196
0.34205 0.14716 1.198
0.34218 0.13465 1.1905
0.34266 0.11772 1.1922
0.33704 0.10305 1.1723
0.33531 0.08586 1.1646
0.33554 0.073835 1.1654
0.33553 0.057192 1.1623
0.33128 0.044502 1.1502
0.33144 0.027969 1.1506
0.32973 0.016047 1.1472
0.32483 -0.00040024 1.1292
0.32483 -0.012125 1.1292
0.32034 -0.027969 1.1135
0.32026 -0.039541 1.1117
0.31472 -0.054811 1.0971
0.31406 -0.065579 1.0894
0.30403 -0.079052 1.0577
0.29995 -0.088917 1.0442
0.29663 -0.1028 1.0324
0.29454 -0.11196 1.0282
0.29309 -0.12637 1.0155
0.28855 -0.13485 1
0.28377 -0.14729 0.99532
0.27303 -0.15152 0.95278
0.23927 -0.14357 0.82954
0.20754 -0.13209 0.71802
0.19971 -0.13723 0.69339
0.19071 -0.1381 0.66372
0.18968 -0.14675 0.65787
0.1878 -0.15229 0.65174
0.18705 -0.16106 0.6496
0.18812 -0.16906 0.65298
0.19003 -0.17968 0.65651
0.19559 -0.19188 0.67787
0.19636 -0.20104 0.68031
0.19252 -0.20518 0.66571
0.19172 -0.21393 0.66308
0.18885 -0.21873 0.65754
0.18807 -0.22692 0.65039
0.18745 -0.23302 0.6501
0.18673 -0.24184 0.64729
0.18668 -0.2482 0.64713
0.191 -0.26228 0.6634
0.34466 0.47739 1.2603
0.34611 0.46168 1.2516
0.33695 0.44068 1.2236
0.33618 0.42046 1.2134
0.33177 0.39984 1.1975
0.33307 0.3862 1.2022
0.34529 0.38744 1.2565
0.34845 0.37422 1.2619
0.35194 0.36516 1.2819
0.35316 0.34808 1.2863
0.35079 0.33174 1.2776
0.34689 0.31198 1.2655
0.34746 0.29935 1.2674
0.34848 0.28076 1.2663
0.34892 0.26692 1.2659
0.34984 0.24953 1.2692
0.34902 0.23656 1.2706
0.34621 0.21671 1.2507
0.34229 0.20244 1.2423
0.34181 0.18435 1.2434
0.34021 0.16997 1.2423
0.34012 0.15254 1.233
0.34015 0.13953 1.2344
0.33867 0.12089 1.2335
0.33616 0.10746 1.2215
0.33527 0.090084 1.2169
0.33677 0.077473 1.2177
0.33234 0.059294 1.2091
0.33437 0.046905 1.2096
0.33185 0.029472 1.2088
0.33166 0.016893 1.2059
0.33171 -0.00040676 1.2056
0.3317 -0.012881 1.2051
0.32959 -0.030047 1.1976
0.31722 -0.040776 1.1488
0.31574 -0.057142 1.1479
0.30881 -0.067253 1.1197
0.30561 -0.083106 1.112
0.29976 -0.092282 1.0907
0.29426 -0.10661 1.0723
0.29346 -0.11647 1.066
0.28787 -0.12953 1.0452
0.28275 -0.13861 1.0288
0.28226 -0.15314 1.0269
0.27224 -0.15782 0.99696
0.25105 -0.15846 0.90595
0.19231 -0.12798 0.69725
0.18331 -0.13185 0.66702
0.18272 -0.13813 0.6617
0.18146 -0.14671 0.65768
0.18021 -0.15274 0.65444
0.17941 -0.16149 0.65156
0.17948 -0.16805 0.65093
0.18013 -0.17849 0.65275
0.18211 -0.18661 0.65682
0.18183 -0.19539 0.65445
0.18135 -0.2014 0.65216
0.17851 -0.20782 0.64936
0.17632 -0.21334 0.6406
0.17466 -0.22156 0.63354
0.17327 -0.22422 0.62519
0.17255 -0.23224 0.62247
0.17383 -0.242 0.63185
0.1749 -0.2513 0.6352
0.33886 0.49232 1.2817
0.33948 0.47613 1.2874
0.34029 0.46256 1.2896
0.33746 0.44051 1.2767
0.32976 0.42333 1.2569
0.33107 0.40689 1.2619
0.3398 0.40146 1.2952
0.3448 0.38616 1.3172
0.3456 0.37512 1.317
0.34759 0.35914 1.3222
0.34843 0.34627 1.3254
0.34955 0.32835 1.3297
0.3437 0.30834 1.3013
0.3447 0.29052 1.3051
0.34109 0.27439 1.2973
0.34199 0.25651 1.3007
0.34137 0.24203 1.2987
0.33996 0.22348 1.2975
0.33999 0.2101 1.2951
0.33917 0.19072 1.2932
0.33841 0.17708 1.291
0.33825 0.15849 1.2824
0.33358 0.14274 1.2699
0.32972 0.1231 1.2578
0.33003 0.11024 1.2589
0.32929 0.092423 1.246
0.32952 0.079575 1.2468
0.33273 0.061921 1.2672
0.33827 0.049938 1.2876
0.33378 0.030929 1.2683
0.33386 0.017741 1.2658
0.32985 -0.00040909 1.2543
0.32344 -0.013161 1.2326
0.32277 -0.03065 1.2315
0.3183 -0.04292 1.2044
0.31383 -0.05936 1.1911
0.31172 -0.071711 1.188
0.3111 -0.087996 1.18
0.30499 -0.098217 1.1569
0.29986 -0.11287 1.1381
0.29443 -0.12233 1.117
0.29266 -0.13787 1.1091
0.29232 -0.14953 1.1139
0.29077 -0.1638 1.1018
0.27192 -0.16493 1.0332
0.24472 -0.16169 0.93041
0.18349 -0.12819 0.69932
0.17574 -0.13199 0.66899
0.17517 -0.13846 0.66205
0.17396 -0.14712 0.65796
0.17277 -0.15302 0.65544
0.17218 -0.16169 0.65279
0.17186 -0.1681 0.65127
0.17131 -0.17696 0.64974
0.1722 -0.18433 0.65231
0.1707 -0.19294 0.64995
0.16899 -0.19683 0.63734
0.16687 -0.20358 0.63176
0.16489 -0.2084 0.62699
0.16393 -0.21641 0.62224
0.16345 -0.22234 0.62032
0.16376 -0.23131 0.62219
0.16379 -0.23707 0.62104
0.16439 -0.24617 0.62074
0.33191 0.5059 1.3197
0.33338 0.48974 1.3256
0.33358 0.47755 1.3264
0.32853 0.45116 1.3048
0.32618 0.4321 1.2927
0.32764 0.4167 1.3122
0.33445 0.41362 1.3392
0.34609 0.406 1.3834
0.347 0.39283 1.387
0.34468 0.37114 1.3743
0.34466 0.35735 1.3736
0.34052 0.33584 1.3574
0.34102 0.31992 1.3598
0.33914 0.29995 1.3454
0.33983 0.28653 1.3481
0.34039 0.26806 1.3559
0.34144 0.25444 1.3618
0.34181 0.2353 1.365
0.34181 0.22152 1.358
0.33865 0.1994 1.3538
0.33912 0.18568 1.3556
0.33505 0.16458 1.3409
0.32966 0.14802 1.3176
0.33013 0.12942 1.3166
0.33102 0.11608 1.3178
0.33139 0.097324 1.3176
0.32919 0.083215 1.3153
0.32778 0.064325 1.3072
0.32672 0.050757 1.305
0.32607 0.031729 1.3051
0.32383 0.018153 1.2922
0.32059 -0.00039354 1.2778
0.32292 -0.01375 1.2921
0.32286 -0.032185 1.2918
0.32179 -0.045281 1.2854
0.31936 -0.063305 1.2715
0.31522 -0.075111 1.2531
0.31142 -0.092388 1.2431
0.30741 -0.10399 1.2222
0.30063 -0.11915 1.2027
0.2943 -0.12796 1.1713
0.28786 -0.14224 1.1549
0.28752 -0.15398 1.1534
0.28651 -0.16996 1.1403
0.2792 -0.17692 1.1134
0.24223 -0.16741 0.96675
0.18424 -0.13497 0.73587
0.17093 -0.13481 0.68012
0.16758 -0.1389 0.66393
0.1664 -0.14751 0.65988
0.16552 -0.15376 0.65755
0.16476 -0.16208 0.65461
0.16414 -0.1685 0.65301
0.16344 -0.17711 0.6488
0.16154 -0.18218 0.64151
0.16053 -0.19068 0.63391
0.15884 -0.19391 0.63123
0.15637 -0.20192 0.62704
0.15542 -0.20596 0.61394
0.1548 -0.21266 0.61139
0.15452 -0.21818 0.61405
0.15429 -0.22618 0.61155
0.154 -0.23439 0.61339
0.15419 -0.24308 0.61234
0.32004 0.514 1.3446
0.32212 0.49858 1.3555
0.32313 0.48618 1.3598
0.32122 0.46383 1.3444
0.31941 0.44572 1.3366
0.32069 0.43126 1.3428
0.33283 0.43195 1.4035
0.33921 0.42052 1.4224
0.33833 0.40526 1.4134
0.33917 0.3839 1.4183
0.33788 0.36962 1.4197
0.33462 0.34343 1.4007
0.32822 0.32418 1.3725
0.3277 0.30514 1.3722
0.32837 0.29149 1.3749
0.33134 0.27319 1.3946
0.3343 0.26112 1.3971
0.33509 0.24324 1.4005
0.33511 0.22756 1.4023
0.33542 0.20695 1.4049
0.33401 0.19177 1.4062
0.33196 0.17153 1.3889
0.32958 0.15573 1.3796
0.32829 0.13512 1.3784
0.32395 0.11977 1.3578
0.32283 0.099469 1.355
0.32171 0.085163 1.345
0.31792 0.065576 1.3358
0.31776 0.051709 1.3313
0.31767 0.032289 1.328
0.31668 0.018569 1.3256
0.31672 -0.00039025 1.3257
0.31463 -0.014091 1.3169
0.31427 -0.032951 1.3162
0.31419 -0.04661 1.3162
0.31267 -0.06498 1.3114
0.30983 -0.077887 1.2988
0.30524 -0.094904 1.2744
0.30285 -0.1073 1.2704
0.29635 -0.12281 1.2456
0.28811 -0.13308 1.2062
0.2872 -0.1484 1.202
0.28735 -0.16065 1.2005
0.28635 -0.17701 1.1983
0.27828 -0.18585 1.1668
0.25097 -0.18038 1.0498
0.19845 -0.15345 0.83486
0.1753 -0.14533 0.73442
0.1628 -0.14198 0.67744
0.15927 -0.14809 0.66166
0.15793 -0.15416 0.65861
0.15721 -0.16249 0.65594
0.1564 -0.16781 0.65074
0.1533 -0.17475 0.64264
0.15201 -0.17975 0.6321
0.15107 -0.18751 0.62754
0.14878 -0.19212 0.62213
0.14792 -0.19891 0.61315
0.14747 -0.2046 0.61135
0.14599 -0.21244 0.61052
0.14555 -0.21736 0.60862
0.1448 -0.22458 0.60593
0.14515 -0.23035 0.60655
0.14464 -0.23792 0.60472
0.31156 0.52821 1.3759
0.31295 0.51088 1.3821
0.31526 0.49858 1.3954
0.3166 0.48083 1.3893
0.31455 0.46418 1.3935
0.32066 0.45401 1.42
0.32419 0.44672 1.4285
0.32945 0.42911 1.4543
0.32891 0.4139 1.4511
0.33006 0.3931 1.4562
0.32652 0.37676 1.4465
0.3261 0.35506 1.442
0.32003 0.33283 1.4129
0.32098 0.3123 1.4171
0.32499 0.30271 1.4313
0.32618 0.28412 1.4389
0.32796 0.27077 1.4417
0.32933 0.25147 1.45
0.32986 0.23675 1.4523
0.32947 0.21469 1.4565
0.3294 0.19927 1.4474
0.32491 0.17619 1.4337
0.32265 0.16095 1.4263
0.32181 0.13976 1.4195
0.31988 0.12475 1.4155
0.3189 0.10335 1.4068
0.31151 0.08729 1.3763
0.30928 0.066878 1.3598
0.30942 0.052779 1.3604
0.31083 0.033498 1.3661
0.31145 0.019272 1.3668
0.31191 -0.00038649 1.3696
0.3115 -0.014607 1.3668
0.31023 -0.034205 1.3656
0.30823 -0.047858 1.3506
0.30433 -0.06676 1.3392
0.30053 -0.079421 1.3213
0.29638 -0.097212 1.3046
0.29348 -0.10942 1.3013
0.29123 -0.12622 1.2784
0.28446 -0.13724 1.2582
0.28055 -0.15385 1.236
0.27852 -0.16548 1.2309
0.27793 -0.18247 1.2221
0.27591 -0.19453 1.2109
0.26292 -0.20099 1.1581
0.21975 -0.17787 0.97234
0.18109 -0.15773 0.79357
0.15704 -0.14475 0.69423
0.15277 -0.15045 0.67326
0.15029 -0.15453 0.66086
0.14913 -0.1617 0.65276
0.14578 -0.16546 0.64329
0.14449 -0.17328 0.63326
0.14214 -0.17742 0.62642
0.14156 -0.1846 0.62002
0.13971 -0.18857 0.61329
0.13909 -0.19599 0.61045
0.138 -0.20171 0.60865
0.13729 -0.20956 0.60419
0.13687 -0.21513 0.6023
0.13657 -0.2231 0.59963
0.13629 -0.229 0.5978
0.13567 -0.23872 0.59903
0.29497 0.52731 1.3771
0.30007 0.51866 1.3992
0.30316 0.5072 1.4082
0.30445 0.48915 1.4167
0.30546 0.47593 1.422
0.3105 0.46283 1.448
0.31223 0.45011 1.4589
0.31963 0.43855 1.4886
0.32274 0.42743 1.5029
0.32387 0.40748 1.5083
0.32286 0.39307 1.5072
0.32387 0.37122 1.5065
0.31993 0.35125 1.4875
0.31944 0.3308 1.4885
0.31861 0.31398 1.4896
0.31947 0.29355 1.4936
0.32185 0.28159 1.5051
0.32375 0.26075 1.5086
0.32314 0.24541 1.5089
0.32309 0.22256 1.5083
0.32252 0.20664 1.5077
0.31675 0.18265 1.4869
0.31712 0.16698 1.4831
0.31654 0.14565 1.4806
0.31703 0.13044 1.4771
0.3172 0.10888 1.4699
0.31172 0.092286 1.451
0.31157 0.071025 1.4489
0.30933 0.055809 1.4397
0.30705 0.035042 1.4275
0.30586 0.02009 1.4264
0.30245 -0.00037905 1.4077
0.3009 -0.014944 1.4034
0.30075 -0.035007 1.4029
0.29568 -0.048781 1.38
0.29542 -0.068341 1.3732
0.29518 -0.08219 1.3718
0.28762 -0.099539 1.3392
0.28334 -0.11199 1.3259
0.28144 -0.12951 1.3055
0.27794 -0.14137 1.2874
0.27519 -0.1587 1.2776
0.27486 -0.17128 1.276
0.27437 -0.1898 1.2752
0.27092 -0.20152 1.2609
0.26123 -0.21212 1.2112
0.2085 -0.17829 0.97476
0.17537 -0.16191 0.81366
0.149 -0.14509 0.69594
0.14472 -0.15007 0.66998
0.14191 -0.15326 0.6557
0.13845 -0.15919 0.64638
0.13668 -0.16451 0.63854
0.13511 -0.17137 0.62683
0.13388 -0.17573 0.6226
0.13248 -0.18259 0.61593
0.13195 -0.1884 0.61423
0.131 -0.1957 0.60835
0.13035 -0.20135 0.60507
0.12982 -0.20843 0.60045
0.12931 -0.21402 0.59856
0.12904 -0.22137 0.59645
0.12848 -0.22686 0.59447
0.1279 -0.23431 0.59053
0.28492 0.53852 1.3959
0.28784 0.52608 1.4204
0.29019 0.51438 1.4374
0.2936 0.49852 1.4456
0.29522 0.48506 1.45
0.29702 0.46976 1.4603
0.30376 0.46841 1.513
0.30918 0.45347 1.5264
0.3115 0.43902 1.547
0.31375 0.42119 1.5525
0.31438 0.40382 1.5514
0.3154 0.38295 1.5565
0.31612 0.36771 1.5571
0.317 0.34634 1.5617
0.31534 0.32933 1.556
0.31444 0.30638 1.5542
0.31376 0.28995 1.5557
0.31451 0.2681 1.5594
0.31503 0.25232 1.562
0.3149 0.23005 1.556
0.31517 0.21382 1.5528
0.31443 0.19097 1.547
0.31435 0.17511 1.5488
0.31502 0.15312 1.5533
0.31511 0.13683 1.5547
0.31078 0.1134 1.5317
0.30826 0.097015 1.5253
0.30786 0.074839 1.523
0.30404 0.058209 1.5032
0.30269 0.036503 1.4997
0.30017 0.020903 1.489
0.29525 -0.00037677 1.4627
0.29503 -0.015552 1.4603
0.29486 -0.036373 1.4566
0.29364 -0.051188 1.4457
0.29062 -0.071354 1.4365
0.28777 -0.085204 1.412
0.28178 -0.10358 1.3915
0.27559 -0.11549 1.3641
0.27501 -0.13463 1.3607
0.27451 -0.14781 1.3551
0.2741 -0.16691 1.353
0.27512 -0.18167 1.3533
0.27292 -0.20071 1.3507
0.25986 -0.20458 1.2764
0.25098 -0.21551 1.2379
0.17736 -0.15926 0.87604
0.146 -0.14307 0.72221
0.13742 -0.14124 0.67569
0.13468 -0.14736 0.65866
0.13131 -0.15076 0.64992
0.12954 -0.1586 0.63781
0.12825 -0.16323 0.63236
0.12659 -0.16985 0.62516
0.12572 -0.17506 0.6184
0.12487 -0.18233 0.61372
0.12416 -0.18802 0.60999
0.12343 -0.19563 0.6057
0.12256 -0.20063 0.60149
0.12185 -0.208 0.59785
0.12109 -0.21358 0.59613
0.12057 -0.22119 0.59294
0.12021 -0.22598 0.59234
0.11995 -0.23339 0.59099
0.27185 0.54735 1.4296
0.27601 0.53481 1.441
0.27848 0.52634 1.4699
0.28137 0.51209 1.4777
0.28259 0.50302 1.4919
0.28754 0.48428 1.5183
0.29351 0.47824 1.5465
0.30108 0.46701 1.5709
0.30188 0.45189 1.5751
0.30278 0.43212 1.5972
0.30299 0.4136 1.5908
0.30398 0.39371 1.5961
0.30408 0.37662 1.5952
0.30499 0.35624 1.6
0.30541 0.33994 1.6048
0.30654 0.31782 1.6162
0.30681 0.30072 1.6121
0.30674 0.27782 1.6185
0.30652 0.2615 1.6109
0.30741 0.23893 1.617
0.30757 0.22212 1.6165
0.3066 0.19845 1.6132
0.30696 0.1819 1.6138
0.30741 0.15906 1.6161
0.30615 0.142 1.6091
0.3047 0.11761 1.5965
0.30158 0.10035 1.5798
0.29923 0.07736 1.577
0.29623 0.060231 1.5584
0.29586 0.03799 1.5532
0.29269 0.021597 1.5357
0.29015 -0.00037728 1.5261
0.28951 -0.016094 1.5174
0.28873 -0.037791 1.5096
0.28639 -0.053301 1.5033
0.28562 -0.074071 1.4939
0.28048 -0.088159 1.4694
0.27675 -0.10819 1.4496
0.27416 -0.12139 1.4369
0.27085 -0.14106 1.433
0.27059 -0.15568 1.4315
0.27326 -0.17682 1.4394
0.27535 -0.19347 1.4405
0.25924 -0.20356 1.3606
0.25469 -0.21428 1.3411
0.2154 -0.19605 1.1317
0.14302 -0.13805 0.75079
0.1329 -0.1382 0.69974
0.12757 -0.14068 0.66236
0.12481 -0.14515 0.65312
0.12257 -0.15028 0.64498
0.1212 -0.15734 0.63525
0.11965 -0.16198 0.62845
0.11835 -0.16906 0.62098
0.1177 -0.17451 0.61733
0.11711 -0.18216 0.61112
0.11612 -0.18684 0.60732
0.11521 -0.19437 0.60345
0.11467 -0.19991 0.60148
0.11395 -0.20724 0.59763
0.11355 -0.2129 0.59477
0.1129 -0.22011 0.59184
0.1127 -0.22553 0.58831
0.1124 -0.23363 0.58445
0.2594 0.55872 1.4657
0.26227 0.54489 1.4781
0.26522 0.53704 1.493
0.26773 0.51888 1.5054
0.27231 0.50769 1.5363
0.27907 0.49903 1.5589
0.28239 0.49311 1.5876
0.286 0.47429 1.6087
0.28758 0.46033 1.6141
0.28908 0.44027 1.6223
0.28931 0.424 1.6246
0.29107 0.4026 1.6312
0.29212 0.38718 1.6349
0.29328 0.36687 1.65
0.29455 0.35048 1.6534
0.29535 0.32625 1.6566
0.29464 0.30882 1.6521
0.29527 0.28581 1.656
0.2949 0.26864 1.6533
0.29533 0.24484 1.6564
0.295 0.22765 1.6587
0.29442 0.20378 1.6585
0.29469 0.18683 1.6546
0.29411 0.16265 1.6508
0.29325 0.14553 1.6452
0.29358 0.12114 1.6414
0.29262 0.10416 1.6421
0.2917 0.080555 1.6352
0.29016 0.063162 1.6326
0.28887 0.039736 1.6224
0.2883 0.022759 1.6149
0.28573 -0.00038015 1.6086
0.28538 -0.017034 1.6005
0.28472 -0.039824 1.5944
0.2795 -0.055521 1.5744
0.27527 -0.07697 1.5467
0.27487 -0.092555 1.5421
0.27277 -0.11403 1.5292
0.27046 -0.12832 1.5115
0.26837 -0.1495 1.5096
0.26811 -0.16538 1.5086
0.27056 -0.18809 1.5117
0.26179 -0.19743 1.4794
0.25787 -0.21459 1.4431
0.22608 -0.20143 1.2611
0.16798 -0.1642 0.94602
0.12613 -0.13078 0.71104
0.12113 -0.13424 0.67732
0.11855 -0.13779 0.66149
0.11557 -0.14433 0.64832
0.11427 -0.14899 0.6386
0.11292 -0.15658 0.63126
0.1119 -0.16127 0.62477
0.11061 -0.16884 0.62008
0.11017 -0.17412 0.61654
0.10908 -0.18122 0.61023
0.10837 -0.18678 0.60703
0.1077 -0.19406 0.60427
0.10725 -0.19923 0.60039
0.10632 -0.20663 0.59627
0.106 -0.21242 0.59213
0.10542 -0.21967 0.59122
0.10512 -0.22553 0.58835
0.10513 -0.23291 0.58604
0.25354 0.58737 1.5341
0.25469 0.56815 1.5289
0.25797 0.55491 1.5508
0.26114 0.53743 1.575
0.26185 0.5295 1.5794
0.26402 0.50937 1.5921
0.2693 0.50388 1.6299
0.27194 0.48315 1.6369
0.27305 0.4703 1.6435
0.27457 0.44901 1.6517
0.27682 0.43362 1.6618
0.27833 0.41126 1.6715
0.27896 0.39568 1.6712
0.27925 0.37286 1.6824
0.27811 0.35594 1.6795
0.2788 0.33064 1.6785
0.27851 0.31336 1.679
0.27918 0.29009 1.683
0.27997 0.27359 1.688
0.28065 0.24999 1.6943
0.28105 0.23257 1.6939
0.28051 0.2087 1.6931
0.28034 0.19064 1.6901
0.28076 0.16659 1.6892
0.28102 0.14879 1.6908
0.28084 0.12473 1.6922
0.28055 0.10729 1.6878
0.27964 0.082914 1.6789
0.27905 0.065109 1.6747
0.27829 0.041091 1.6718
0.27836 0.023619 1.67
0.2766 -0.00037807 1.665
0.27626 -0.01761 1.6549
0.27612 -0.041265 1.6543
0.27338 -0.058372 1.6477
0.27045 -0.08095 1.6328
0.26745 -0.096888 1.6118
0.26627 -0.11898 1.6024
0.26287 -0.13477 1.5876
0.26257 -0.15714 1.5856
0.26436 -0.1737 1.5944
0.25718 -0.19226 1.5423
0.25342 -0.20421 1.5195
0.24053 -0.21499 1.4599
0.18254 -0.17471 1.1046
0.13232 -0.13742 0.79308
0.11555 -0.12808 0.69704
0.11234 -0.13365 0.67323
0.10829 -0.13626 0.65484
0.10745 -0.14441 0.64722
0.10596 -0.14842 0.63635
0.10463 -0.15544 0.62918
0.10362 -0.16097 0.62457
0.10312 -0.16845 0.61799
0.10222 -0.17352 0.61371
0.10149 -0.18093 0.60929
0.10103 -0.18646 0.60713
0.099959 -0.19367 0.60047
0.099673 -0.19878 0.59797
0.099249 -0.20631 0.59477
0.098676 -0.2117 0.59097
0.098251 -0.21884 0.5883
0.09805 -0.22463 0.58632
0.097702 -0.23332 0.58233
0.23648 0.59096 1.5244
0.24163 0.57408 1.5657
0.244 0.56598 1.5834
0.24586 0.55018 1.5951
0.2491 0.54389 1.6286
0.25259 0.52431 1.6404
0.25532 0.51323 1.6553
0.25665 0.49204 1.6677
0.25801 0.48099 1.6872
0.26017 0.45931 1.6948
0.26114 0.44249 1.6991
0.26336 0.42129 1.7066
0.26259 0.40296 1.7105
0.26307 0.3802 1.712
0.26305 0.36169 1.7111
0.2631 0.33717 1.7081
0.26301 0.31924 1.7107
0.26365 0.29531 1.7137
0.26447 0.27805 1.7165
0.26527 0.25463 1.7212
0.26564 0.23713 1.7236
0.26571 0.21245 1.7235
0.26478 0.19419 1.7204
0.26487 0.16952 1.7226
0.26481 0.15184 1.7242
0.26461 0.12733 1.723
0.26414 0.10896 1.7176
0.2639 0.084387 1.7155
0.2631 0.066422 1.7124
0.26176 0.041731 1.7041
0.26182 0.024055 1.7044
0.26175 -0.0003694 1.6972
0.26174 -0.018013 1.6973
0.26133 -0.042337 1.6966
0.25984 -0.059507 1.6892
0.25961 -0.083276 1.6822
0.2566 -0.09998 1.6697
0.25436 -0.12307 1.6583
0.25418 -0.13992 1.657
0.25475 -0.16335 1.6596
0.25191 -0.18029 1.648
0.2452 -0.19717 1.5958
0.2368 -0.2067 1.5424
0.21336 -0.20647 1.3805
0.14407 -0.14813 0.9331
0.11272 -0.12689 0.73087
0.10586 -0.12613 0.6848
0.10302 -0.13316 0.67131
0.10049 -0.13615 0.6515
0.099446 -0.14338 0.64448
0.097554 -0.14794 0.63278
0.096785 -0.15526 0.62947
0.09608 -0.16042 0.62267
0.095419 -0.16794 0.61542
0.094713 -0.17332 0.61267
0.094015 -0.1807 0.60593
0.093452 -0.1863 0.60325
0.092776 -0.19321 0.60005
0.092505 -0.19823 0.59824
0.091759 -0.20549 0.59306
0.091518 -0.21099 0.59129
0.091237 -0.21786 0.58838
0.090945 -0.22341 0.58612
0.090519 -0.23073 0.58391
0.2223 0.59439 1.5673
0.22331 0.57712 1.5746
0.2259 0.5713 1.5916
0.23234 0.56263 1.6312
0.23391 0.55351 1.659
0.23975 0.53819 1.6864
0.24162 0.52675 1.6989
0.24317 0.50709 1.714
0.24465 0.49238 1.7209
0.24637 0.47112 1.7302
0.24613 0.45429 1.7346
0.24674 0.42916 1.7404
0.24725 0.41171 1.7444
0.24737 0.38768 1.7496
0.24788 0.36978 1.7495
0.24968 0.34574 1.7581
0.25015 0.32743 1.7566
0.24985 0.30311 1.7609
0.24961 0.2854 1.7629
0.25009 0.26047 1.7609
0.25044 0.24257 1.7632
0.25025 0.21717 1.7644
0.2496 0.19894 1.7653
0.2496 0.17381 1.7677
0.24937 0.15554 1.7617
0.24963 0.12969 1.7618
0.24939 0.11156 1.7615
0.24906 0.086269 1.759
0.24868 0.067948 1.7533
0.24726 0.042521 1.7419
0.24687 0.024516 1.7423
0.24642 -0.00036332 1.7365
0.24642 -0.018384 1.7342
0.24437 -0.042986 1.7209
0.24419 -0.060861 1.7204
0.24356 -0.085443 1.7192
0.24341 -0.10294 1.7139
0.2411 -0.12709 1.7082
0.24087 -0.14389 1.701
0.24036 -0.1668 1.6805
0.23485 -0.18063 1.6608
0.2315 -0.20239 1.6415
0.21409 -0.20269 1.5106
0.18619 -0.19452 1.3178
0.11717 -0.13149 0.83312
0.10028 -0.1226 0.70977
0.096782 -0.12519 0.67785
0.094578 -0.13196 0.66431
0.092327 -0.13558 0.65173
0.091612 -0.14326 0.6419
0.089806 -0.14737 0.63339
0.08921 -0.15517 0.62724
0.088478 -0.16029 0.62003
0.087615 -0.16771 0.6153
0.087078 -0.17326 0.61297
0.086626 -0.18051 0.60588
0.085939 -0.18596 0.60346
0.085384 -0.19327 0.59877
0.084852 -0.19836 0.59604
0.084429 -0.20546 0.59227
0.084222 -0.21069 0.5904
0.083643 -0.21797 0.58771
0.083358 -0.22346 0.58572
0.082981 -0.23091 0.58075
0.19857 0.59045 1.5177
0.20229 0.5726 1.5502
0.20636 0.56764 1.5939
0.2128 0.56342 1.6255
0.21424 0.5543 1.6614
0.2206 0.54351 1.6977
0.22188 0.53027 1.7099
0.22598 0.51573 1.7449
0.2273 0.49831 1.7496
0.22811 0.47596 1.7552
0.2279 0.45806 1.7597
0.22852 0.43442 1.7656
0.22884 0.41716 1.7694
0.2294 0.39281 1.7733
0.22972 0.37458 1.7692
0.22993 0.3499 1.7741
0.23 0.33157 1.7748
0.23032 0.30663 1.7792
0.23042 0.28852 1.7771
0.23091 0.26329 1.7802
0.23043 0.24474 1.7803
0.23073 0.21912 1.78
0.2301 0.2009 1.7778
0.23013 0.17506 1.7737
0.22975 0.15628 1.7747
0.22975 0.13092 1.7689
0.22922 0.11238 1.7671
0.22914 0.087008 1.7682
0.22916 0.068621 1.766
0.22817 0.043074 1.7598
0.22774 0.024778 1.7577
0.22721 -0.00035326 1.754
0.22614 -0.018457 1.7527
0.22574 -0.043338 1.7388
0.22439 -0.061286 1.7289
0.22412 -0.085949 1.7279
0.22352 -0.10351 1.7269
0.22278 -0.1279 1.7194
0.22259 -0.14542 1.7128
0.22115 -0.16828 1.7106
0.21993 -0.18437 1.6814
0.21168 -0.20253 1.6274
0.18165 -0.18855 1.4036
0.14987 -0.17176 1.1556
0.10108 -0.12381 0.77951
0.090261 -0.12078 0.69388
0.087996 -0.12489 0.6752
0.086548 -0.1314 0.66487
0.084279 -0.13501 0.64658
0.083103 -0.14278 0.63988
0.082225 -0.14716 0.63215
0.081489 -0.15502 0.62494
0.080707 -0.15995 0.61996
0.080056 -0.16793 0.61504
0.079686 -0.17267 0.61046
0.079243 -0.18042 0.60679
0.07871 -0.18543 0.60281
0.077846 -0.19307 0.59791
0.077623 -0.19806 0.59561
0.077182 -0.20548 0.59291
0.076943 -0.21073 0.59113
0.076476 -0.21785 0.58549
0.076203 -0.22321 0.58366
0.075541 -0.22967 0.58089
0.16881 0.55157 1.4318
0.18364 0.57332 1.5522
0.18423 0.55913 1.5573
0.19013 0.5547 1.6143
0.19071 0.54507 1.6193
0.20026 0.54422 1.7
0.20437 0.53922 1.7404
0.20731 0.52153 1.7645
0.20792 0.50409 1.7693
0.20866 0.47915 1.7753
0.20865 0.46204 1.7769
0.20907 0.4382 1.7755
0.20928 0.42079 1.7796
0.20982 0.39563 1.7851
0.2097 0.37749 1.7859
0.20977 0.35195 1.7855
0.20986 0.33369 1.787
0.2099 0.308 1.787
0.2097 0.28947 1.7869
0.20977 0.2642 1.788
0.20991 0.24562 1.7862
0.21001 0.22 1.7861
0.20969 0.20125 1.7847
0.20938 0.17576 1.783
0.20924 0.15704 1.78
0.20885 0.13126 1.7793
0.20871 0.11281 1.7773
0.20825 0.087252 1.7733
0.2083 0.068807 1.7719
0.20813 0.043397 1.7702
0.20782 0.02502 1.7706
0.20772 -0.00034382 1.7691
0.20772 -0.018675 1.7659
0.20688 -0.043851 1.7611
0.20676 -0.062009 1.7587
0.20611 -0.086832 1.7501
0.20513 -0.10483 1.7449
0.20457 -0.12914 1.7385
0.20358 -0.1464 1.7313
0.20268 -0.17046 1.7259
0.19965 -0.18462 1.6838
0.19215 -0.2028 1.6298
0.1649 -0.18881 1.4057
0.13182 -0.1672 1.1198
0.090254 -0.1219 0.76533
0.081926 -0.1209 0.69206
0.079882 -0.12415 0.67557
0.077882 -0.1307 0.66458
0.07631 -0.13516 0.64719
0.07527 -0.14297 0.63832
0.074494 -0.14701 0.63091
0.073925 -0.1551 0.62496
0.073159 -0.15987 0.61808
0.072584 -0.16811 0.61546
0.072195 -0.17259 0.6113
0.071552 -0.17997 0.60704
0.071028 -0.18545 0.60117
0.070667 -0.19257 0.59745
0.070247 -0.19818 0.59563
0.069873 -0.20511 0.592
0.069703 -0.2105 0.58868
0.069345 -0.21795 0.58579
0.069085 -0.22301 0.5838
0.068825 -0.23028 0.57972
0.16851 0.61198 1.59
0.16927 0.59036 1.5974
0.17028 0.57575 1.6142
0.17076 0.55534 1.6162
0.17127 0.54571 1.6212
0.17371 0.52664 1.6482
0.18548 0.54607 1.7597
0.18665 0.52422 1.7726
0.18699 0.50641 1.7754
0.18751 0.48194 1.7811
0.18785 0.46409 1.7821
0.1882 0.43997 1.7857
0.18842 0.42153 1.7855
0.18851 0.39704 1.7904
0.18865 0.37845 1.7915
0.18883 0.3534 1.7924
0.18873 0.33453 1.7912
0.18891 0.30911 1.7935
0.1888 0.29037 1.7923
0.18871 0.26485 1.7912
0.1885 0.2462 1.7922
0.18857 0.22073 1.7907
0.1884 0.20195 1.7886
0.18824 0.17599 1.7864
0.18802 0.1573 1.785
0.18762 0.13176 1.7824
0.18741 0.11299 1.7819
0.18732 0.087481 1.7776
0.18706 0.068979 1.7765
0.18695 0.043491 1.7749
0.18698 0.025091 1.7753
0.18683 -0.00033365 1.7732
0.18676 -0.018714 1.7714
0.1865 -0.044029 1.7678
0.18571 -0.062178 1.7628
0.18541 -0.087254 1.7581
0.18469 -0.10507 1.7515
0.18413 -0.13001 1.7455
0.18368 -0.1477 1.7411
0.18332 -0.1723 1.7339
0.18183 -0.18837 1.7263
0.17546 -0.20587 1.6589
0.14946 -0.19013 1.4239
0.11796 -0.16616 1.1212
0.080221 -0.12129 0.7622
0.073207 -0.12057 0.69296
0.071247 -0.12396 0.67318
0.069909 -0.13082 0.66154
0.068226 -0.13503 0.64773
0.067595 -0.14299 0.63884
0.066634 -0.14714 0.62865
0.066369 -0.15516 0.62541
0.065647 -0.16005 0.62091
0.065127 -0.1683 0.61592
0.064611 -0.17279 0.61074
0.064212 -0.1801 0.6054
0.063778 -0.1855 0.60119
0.063433 -0.19278 0.59711
0.063075 -0.19804 0.59529
0.062738 -0.20525 0.5913
0.06247 -0.21052 0.58867
0.062135 -0.21779 0.58588
0.061937 -0.22323 0.5838
0.061769 -0.23056 0.58081
0.1449 0.59442 1.5484
0.15914 0.62558 1.6862
0.15965 0.6125 1.7083
0.16033 0.60029 1.7159
0.1591 0.58086 1.7213
0.16443 0.56512 1.7625
0.16489 0.5485 1.7677
0.16592 0.52554 1.7767
0.16611 0.50782 1.7794
0.16638 0.48336 1.7856
0.16656 0.46524 1.7868
0.16688 0.44083 1.788
0.1671 0.42296 1.7903
0.16731 0.3976 1.793
0.1673 0.37928 1.7957
0.16731 0.35408 1.7952
0.16746 0.33528 1.7977
0.16738 0.30946 1.7958
0.16733 0.29096 1.7934
0.16733 0.26556 1.7951
0.16702 0.24657 1.795
0.16708 0.22102 1.7928
0.16707 0.20218 1.7923
0.16678 0.17634 1.7895
0.16661 0.15756 1.7877
0.16623 0.13192 1.7857
0.16623 0.11321 1.7823
0.16597 0.087589 1.7811
0.16572 0.069067 1.7792
0.16572 0.04355 1.7771
0.16575 0.02513 1.7774
0.1657 -0.00032407 1.7776
0.1655 -0.018726 1.7746
0.16536 -0.044086 1.7722
0.1645 -0.062287 1.7651
0.16427 -0.087343 1.7602
0.16376 -0.1053 1.7577
0.16334 -0.13027 1.7516
0.16312 -0.14825 1.7473
0.16285 -0.17311 1.7409
0.16227 -0.19058 1.7316
0.15628 -0.20618 1.6696
0.13242 -0.19194 1.4256
0.10452 -0.16567 1.1247
0.071078 -0.12142 0.76309
0.064863 -0.1207 0.69541
0.063589 -0.12408 0.67359
0.061871 -0.13052 0.6623
0.060452 -0.13476 0.64657
0.059893 -0.14269 0.63922
0.059016 -0.1473 0.63199
0.058712 -0.15535 0.6246
0.058165 -0.16015 0.61956
0.057564 -0.16789 0.61609
0.057144 -0.17271 0.61037
0.056867 -0.18032 0.60594
0.056553 -0.18569 0.6028
0.05624 -0.19265 0.59777
0.055822 -0.19802 0.59561
0.055527 -0.20526 0.59129
0.055321 -0.21051 0.58913
0.055006 -0.21789 0.58634
0.05489 -0.22327 0.58424
0.054644 -0.23007 0.58064
0.13988 0.65962 1.7156
0.14241 0.64872 1.755
0.14286 0.63411 1.7608
0.14507 0.61486 1.7897
0.14375 0.59518 1.7732
0.14423 0.56896 1.7713
0.14404 0.55011 1.7716
0.1448 0.52703 1.7827
0.14491 0.50916 1.7835
0.14499 0.48432 1.788
0.14517 0.46592 1.79
0.14534 0.44129 1.7922
0.14558 0.42352 1.7921
0.14573 0.39799 1.795
0.14573 0.37965 1.7968
0.14566 0.35457 1.7967
0.14586 0.33599 1.7987
0.14582 0.30986 1.7974
0.1459 0.29155 1.7963
0.14573 0.26583 1.7978
0.14546 0.24682 1.7971
0.14551 0.22121 1.7944
0.14538 0.20228 1.795
0.14529 0.17665 1.7914
0.1451 0.15782 1.7904
0.14477 0.13206 1.7876
0.14477 0.1134 1.7842
0.14465 0.087679 1.7832
0.14436 0.069121 1.781
0.14427 0.043618 1.78
0.14431 0.025173 1.7803
0.1443 -0.00031586 1.7805
0.14428 -0.018748 1.7765
0.14381 -0.04411 1.7741
0.14324 -0.062346 1.7667
0.14307 -0.087486 1.7621
0.14262 -0.10549 1.7595
0.1423 -0.13047 1.7552
0.1422 -0.14852 1.7556
0.14223 -0.17344 1.7534
0.14209 -0.19125 1.7515
0.1372 -0.20887 1.6932
0.11564 -0.19338 1.4325
0.091396 -0.16583 1.1304
0.062181 -0.12161 0.76667
0.057075 -0.12115 0.69689
0.055135 -0.1242 0.67428
0.053951 -0.13064 0.66517
0.052741 -0.13482 0.64723
0.052183 -0.14282 0.63986
0.051408 -0.14748 0.63131
0.051141 -0.15546 0.62522
0.050663 -0.16025 0.61959
0.050189 -0.16804 0.61649
0.049804 -0.17287 0.60978
0.049566 -0.18034 0.60653
0.049266 -0.18585 0.60374
0.048969 -0.19283 0.59954
0.048694 -0.19818 0.59618
0.048375 -0.20542 0.5921
0.048244 -0.21071 0.59018
0.047954 -0.21808 0.58689
0.047824 -0.22344 0.58421
0.047621 -0.23076 0.58017
0.12142 0.67327 1.7513
0.12249 0.65283 1.7673
0.12287 0.63794 1.7756
0.12389 0.61924 1.8007
0.12244 0.59564 1.7746
0.1231 0.56945 1.7782
0.1229 0.55126 1.778
0.12353 0.52824 1.7863
0.12364 0.51042 1.7875
0.12372 0.48562 1.7925
0.12373 0.46718 1.7941
0.12377 0.44177 1.7937
0.12392 0.42396 1.7954
0.12413 0.39832 1.7969
0.12417 0.37985 1.7978
0.12407 0.35501 1.7995
0.12419 0.33627 1.7996
0.12415 0.31033 1.7998
0.12409 0.2918 1.7999
0.12403 0.26609 1.7997
0.12389 0.24705 1.7981
0.12389 0.22155 1.796
0.12378 0.20246 1.7966
0.12368 0.17682 1.7923
0.12356 0.15796 1.792
0.1235 0.13221 1.7888
0.12325 0.11351 1.7874
0.12316 0.08776 1.7849
0.12297 0.069187 1.7829
0.12287 0.04368 1.7822
0.1229 0.025212 1.7826
0.12288 -0.00030861 1.7821
0.12271 -0.01876 1.7796
0.12243 -0.04414 1.7757
0.12209 -0.062401 1.7689
0.1218 -0.087495 1.7668
0.12142 -0.10557 1.7611
0.12115 -0.13063 1.757
0.12107 -0.14883 1.7572
0.12174 -0.1741 1.764
0.12162 -0.19216 1.7621
0.11748 -0.20974 1.6964
0.10061 -0.1948 1.4525
0.079862 -0.16997 1.156
0.05341 -0.12276 0.77455
0.04925 -0.12379 0.71596
0.046946 -0.1242 0.67443
0.046025 -0.13129 0.6677
0.04499 -0.13497 0.64999
0.044435 -0.14294 0.64078
0.043838 -0.14752 0.63366
0.043457 -0.15556 0.62602
0.043101 -0.16038 0.62146
0.042742 -0.16828 0.61701
0.04255 -0.173 0.61149
0.042214 -0.18047 0.60764
0.041944 -0.18607 0.60425
0.041677 -0.19309 0.59958
0.041531 -0.19833 0.59637
0.041193 -0.20574 0.59265
0.041095 -0.21107 0.59073
0.040823 -0.21824 0.58737
0.04077 -0.22355 0.585
0.040591 -0.23079 0.58295
0.10093 0.67297 1.7548
0.10135 0.65559 1.7748
0.1016 0.63938 1.7807
0.10265 0.61963 1.7992
0.1007 0.58817 1.7568
0.10191 0.57132 1.7885
0.10171 0.55307 1.7822
0.10226 0.52991 1.7909
0.10208 0.5112 1.7925
0.10216 0.48618 1.7953
0.10216 0.46833 1.7964
0.1022 0.44263 1.7979
0.10236 0.42427 1.7985
0.1024 0.39904 1.7982
0.10251 0.38011 1.7997
0.10245 0.35526 1.8018
0.10249 0.33651 1.8009
0.10254 0.31092 1.8028
0.10248 0.29214 1.8022
0.10242 0.2665 1.803
0.10248 0.24724 1.8001
0.10228 0.22161 1.8015
0.10221 0.2026 1.7979
0.10222 0.17696 1.7936
0.10194 0.15808 1.7924
0.10192 0.13231 1.7922
0.1017 0.11355 1.789
0.10163 0.087879 1.787
0.10145 0.069281 1.7852
0.10136 0.043717 1.7843
0.10144 0.025236 1.7846
0.10131 -0.00030277 1.7834
0.10131 -0.01878 1.781
0.10106 -0.044213 1.779
0.10075 -0.06244 1.7708
0.10049 -0.087617 1.7684
0.10031 -0.10582 1.7616
0.10007 -0.13077 1.7583
0.10014 -0.14918 1.7585
0.10048 -0.17435 1.7691
0.10038 -0.19243 1.7672
0.097498 -0.21263 1.7084
0.084417 -0.20023 1.4986
0.069514 -0.17964 1.2082
0.04596 -0.12837 0.80682
0.041291 -0.12576 0.72405
0.038399 -0.12389 0.67417
0.038001 -0.13169 0.66861
0.037196 -0.13522 0.65046
0.037015 -0.14317 0.64298
0.036234 -0.14795 0.63412
0.035977 -0.15566 0.62937
0.035573 -0.16048 0.6219
0.035384 -0.1685 0.61732
0.035147 -0.17354 0.61333
0.034891 -0.18059 0.60839
0.034624 -0.18615 0.60322
0.034406 -0.19363 0.60036
0.034287 -0.19861 0.59861
0.034122 -0.20587 0.59405
0.033946 -0.21137 0.59221
0.033768 -0.2187 0.58872
0.03367 -0.22407 0.58674
0.033562 -0.231 0.58237
0.079285 0.67325 1.7578
0.079997 0.65671 1.7783
0.080235 0.64048 1.7842
0.080988 0.62146 1.803
0.079389 0.58792 1.7629
0.08051 0.57432 1.7931
0.080313 0.55365 1.7881
0.080752 0.53118 1.7951
0.080657 0.51307 1.7967
0.080591 0.48711 1.7971
0.080607 0.46886 1.7982
0.08066 0.44292 1.8004
0.080622 0.42474 1.7995
0.080724 0.39925 1.8008
0.08076 0.38115 1.801
0.080788 0.35553 1.8036
0.080832 0.33699 1.8039
0.080896 0.31162 1.8041
0.08072 0.2923 1.8052
0.080755 0.26675 1.8045
0.080714 0.24779 1.8042
0.080602 0.22184 1.8026
0.080554 0.20282 1.799
0.080531 0.17711 1.7978
0.080311 0.15827 1.7935
0.080302 0.13239 1.7936
0.080077 0.11364 1.7899
0.080036 0.087938 1.7885
0.079889 0.069343 1.7854
0.079864 0.043784 1.7854
0.079899 0.025276 1.786
0.079831 -0.00029797 1.7845
0.07977 -0.018786 1.7837
0.079676 -0.044279 1.7816
0.079334 -0.062515 1.7724
0.079159 -0.087661 1.7703
0.079104 -0.10587 1.766
0.078915 -0.13106 1.7602
0.078948 -0.14948 1.7628
0.079294 -0.17543 1.772
0.079223 -0.19363 1.7746
0.078547 -0.21628 1.7426
0.068369 -0.20433 1.546
0.05725 -0.19021 1.2878
0.037972 -0.13481 0.85068
0.032793 -0.12666 0.73006
0.030248 -0.12396 0.67457
0.02992 -0.1319 0.66901
0.029357 -0.13657 0.65111
0.029163 -0.14402 0.64479
0.02856 -0.14816 0.63518
0.028388 -0.15615 0.63075
0.02807 -0.16078 0.62273
0.027891 -0.1687 0.61989
0.02772 -0.17402 0.61605
0.027542 -0.18113 0.61052
0.027375 -0.18666 0.60691
0.027125 -0.1941 0.60106
0.02705 -0.19946 0.59924
0.026905 -0.20632 0.59577
0.026794 -0.21161 0.59254
0.026629 -0.21908 0.58943
0.026584 -0.22449 0.58778
0.026486 -0.23219 0.58555
0.058014 0.67746 1.7631
0.058524 0.65726 1.7793
0.058689 0.64101 1.7852
0.059274 0.62224 1.808
0.058178 0.59325 1.7683
0.058934 0.5748 1.7958
0.058822 0.55483 1.793
0.059061 0.5325 1.8001
0.05905 0.5141 1.8004
0.059003 0.48822 1.8003
0.058959 0.46977 1.8017
0.059051 0.44344 1.8021
0.058952 0.42545 1.8039
0.05905 0.39921 1.8027
0.058997 0.3813 1.8022
0.059049 0.35581 1.8047
0.059036 0.33724 1.8048
0.059119 0.31189 1.8071
0.059071 0.29304 1.807
0.058976 0.26697 1.8061
0.058965 0.24803 1.805
0.05893 0.22242 1.8041
0.058848 0.20335 1.8
0.058787 0.17726 1.7996
0.058611 0.15836 1.7978
0.058602 0.1326 1.7944
0.058464 0.1137 1.7925
0.058419 0.088104 1.791
0.058311 0.069378 1.7863
0.058277 0.043813 1.7859
0.058336 0.025303 1.7868
0.058253 -0.00029427 1.7859
0.058215 -0.018794 1.7845
0.058159 -0.044311 1.7823
0.058029 -0.062567 1.777
0.05786 -0.087852 1.7712
0.057764 -0.10607 1.769
0.057683 -0.13129 1.765
0.057723 -0.14954 1.7658
0.057894 -0.17551 1.7728
0.057873 -0.1942 1.778
0.057558 -0.21722 1.7725
0.052081 -0.21321 1.5872
0.044602 -0.20118 1.3634
0.030084 -0.14593 0.92131
0.024432 -0.12963 0.7488
0.022565 -0.12683 0.69419
0.02189 -0.13236 0.67197
0.02154 -0.13687 0.65769
0.021322 -0.14479 0.64525
0.020939 -0.14873 0.63786
0.020771 -0.1567 0.63246
0.020526 -0.16146 0.62696
0.020445 -0.16876 0.62017
0.020266 -0.17442 0.61756
0.020145 -0.18177 0.612
0.020035 -0.1869 0.60797
0.019939 -0.19422 0.60328
0.019814 -0.1998 0.60054
0.019682 -0.20714 0.59719
0.019649 -0.21258 0.59451
0.019523 -0.21946 0.59036
0.019468 -0.22509 0.58865
0.01939 -0.23308 0.58735
0.036773 0.67777 1.7654
0.037028 0.65767 1.7807
0.037122 0.64141 1.7867
0.03749 0.62332 1.8105
0.037097 0.59482 1.7849
0.037323 0.57553 1.7973
0.037195 0.55617 1.795
0.037308 0.53267 1.8024
0.037351 0.51436 1.805
0.037306 0.48866 1.8035
0.037308 0.47023 1.8039
0.037264 0.4448 1.8027
0.037207 0.42562 1.8052
0.03723 0.40019 1.8064
0.037195 0.3814 1.8065
0.037236 0.35611 1.8066
0.037235 0.33774 1.8081
0.037269 0.312 1.8076
0.037258 0.29332 1.8102
0.037206 0.26725 1.8079
0.037169 0.24826 1.8058
0.037111 0.22258 1.8046
0.037052 0.20348 1.8029
0.037003 0.17751 1.8029
0.036982 0.15854 1.7993
0.036881 0.13264 1.795
0.036791 0.11386 1.794
0.036799 0.088168 1.7918
0.036711 0.069456 1.7874
0.036697 0.043863 1.7871
0.036726 0.025328 1.7881
0.036661 -0.00029214 1.7878
0.036716 -0.018823 1.7877
0.036596 -0.044326 1.7836
0.036553 -0.062718 1.7806
0.036429 -0.087979 1.7742
0.036395 -0.10627 1.7707
0.036351 -0.13134 1.7678
0.036402 -0.14968 1.7738
0.03646 -0.17556 1.7735
0.036583 -0.19535 1.7821
0.036537 -0.22061 1.7792
0.03413 -0.22216 1.6417
0.029769 -0.2136 1.4468
0.020482 -0.15866 0.99304
0.015969 -0.13478 0.77668
0.014398 -0.12893 0.70142
0.013795 -0.13298 0.6736
0.013701 -0.13777 0.66135
0.013451 -0.14499 0.64769
0.013269 -0.1495 0.63997
0.013147 -0.15688 0.63435
0.013012 -0.1621 0.62778
0.012913 -0.16967 0.62355
0.012841 -0.17463 0.61791
0.012752 -0.18252 0.6139
0.012694 -0.18732 0.60949
0.012617 -0.19484 0.60516
0.012571 -0.20017 0.60298
0.012492 -0.20759 0.59834
0.012461 -0.21321 0.59634
0.012409 -0.22028 0.59194
0.012378 -0.22576 0.59155
0.012402 -0.23309 0.58922
0.015431 0.67686 1.7585
0.015527 0.65774 1.781
0.015573 0.6418 1.7879
0.015758 0.62446 1.8144
0.01553 0.60058 1.7907
0.01558 0.57659 1.8005
0.015519 0.55797 1.8003
0.015552 0.53439 1.8074
0.015542 0.5155 1.8059
0.015505 0.48985 1.8086
0.015481 0.47112 1.8058
0.015472 0.44495 1.8047
0.015435 0.42642 1.8064
0.015411 0.40053 1.8068
0.015389 0.38151 1.8074
0.015387 0.35643 1.8076
0.015368 0.33797 1.809
0.015366 0.31225 1.8105
0.015366 0.29336 1.8109
0.015325 0.26755 1.8082
0.015314 0.24859 1.807
0.015278 0.22268 1.8077
0.015241 0.20363 1.8056
0.015227 0.17768 1.8043
0.015194 0.1588 1.801
0.015172 0.13271 1.7998
0.015133 0.11394 1.7948
0.015109 0.088256 1.7929
0.015095 0.069516 1.7898
0.015071 0.043883 1.7885
0.015079 0.025355 1.791
0.015072 -0.00029076 1.7914
0.015085 -0.018877 1.7913
0.015033 -0.044378 1.7841
0.015021 -0.062789 1.782
0.014994 -0.088122 1.7789
0.014978 -0.10644 1.7767
0.014956 -0.13143 1.7723
0.014968 -0.15029 1.7749
0.015047 -0.17571 1.7739
0.0152 -0.19665 1.8042
0.01519 -0.22207 1.8012
0.014329 -0.22796 1.6918
0.013073 -0.22843 1.5441
0.0095866 -0.17866 1.1294
0.0071747 -0.14563 0.84286
0.0060826 -0.13106 0.71564
0.0058422 -0.13591 0.68529
0.0056698 -0.13783 0.66211
0.0056236 -0.14617 0.65539
0.0055222 -0.15029 0.64481
0.005479 -0.15786 0.63674
0.0054349 -0.16262 0.63228
0.0053649 -0.16999 0.62504
0.005347 -0.17508 0.61944
0.0053246 -0.18275 0.61514
0.0053173 -0.18797 0.61223
0.0052793 -0.19565 0.60661
0.0052658 -0.20055 0.60362
0.0052514 -0.20856 0.60076
0.0052363 -0.21351 0.59902
0.0052266 -0.22107 0.59508
0.0052197 -0.22644 0.59276
0.0052016 -0.23447 0.58979
-0.0058711 0.6763 1.7551
-0.0059951 0.65773 1.7796
-0.0060528 0.64193 1.7919
-0.0061693 0.62445 1.816
-0.0061569 0.60254 1.8056
-0.0062006 0.57682 1.8031
-0.0062258 0.55865 1.803
-0.0062873 0.53504 1.8102
-0.0063133 0.51661 1.8082
-0.006345 0.49046 1.8099
-0.0063755 0.47175 1.8091
-0.0064039 0.44515 1.8085
-0.0064309 0.42652 1.8075
-0.0064419 0.4006 1.8082
-0.0064651 0.38238 1.8107
-0.0064941 0.35665 1.8109
-0.0065154 0.3382 1.8104
-0.0065392 0.31238 1.813
-0.0065614 0.2938 1.811
-0.0065725 0.26779 1.809
-0.0065912 0.2487 1.8105
-0.0065993 0.22279 1.8092
-0.0066053 0.204 1.8073
-0.0066066 0.17798 1.806
-0.0066026 0.15894 1.8023
-0.0066041 0.13312 1.8017
-0.0066016 0.11409 1.7989
-0.006597 0.088307 1.7955
-0.0065981 0.069554 1.7935
-0.0065987 0.043926 1.7928
-0.0066087 0.025365 1.794
-0.0065941 -0.00029089 1.7934
-0.0066027 -0.01889 1.7942
-0.0065791 -0.044471 1.7895
-0.0065637 -0.062921 1.7838
-0.0065504 -0.088238 1.7799
-0.0065423 -0.10661 1.7784
-0.0065144 -0.13193 1.7767
-0.0065244 -0.15029 1.776
-0.0065212 -0.1757 1.7808
-0.0065762 -0.19686 1.8054
-0.0065519 -0.22254 1.8024
-0.0063958 -0.23341 1.7514
-0.0059174 -0.24106 1.6327
-0.0046699 -0.20316 1.2854
-0.0034875 -0.16779 0.96813
-0.0026615 -0.13595 0.74223
-0.0025224 -0.13892 0.70089
-0.002383 -0.13858 0.66222
-0.0023504 -0.14681 0.65753
-0.0023181 -0.15176 0.65221
-0.0022795 -0.15821 0.63946
-0.0022464 -0.16372 0.63399
-0.0022086 -0.17055 0.62968
-0.0021846 -0.17601 0.62044
-0.0021488 -0.18327 0.61672
-0.0021324 -0.18869 0.61423
-0.0021109 -0.19619 0.61087
-0.0020877 -0.20192 0.60744
-0.0020577 -0.20916 0.60389
-0.0020395 -0.21465 0.59947
-0.0020152 -0.22178 0.59666
-0.001998 -0.22704 0.5945
-0.0019782 -0.23383 0.5899
-0.027173 0.67554 1.7645
-0.027557 0.65702 1.7795
-0.027814 0.6445 1.7936
-0.028091 0.6253 1.8201
-0.028101 0.60496 1.8073
-0.027993 0.57694 1.8039
-0.028057 0.55948 1.8059
-0.028206 0.53584 1.8131
-0.02821 0.51746 1.8134
-0.028274 0.49103 1.8116
-0.028269 0.47192 1.8114
-0.028308 0.44647 1.8109
-0.028334 0.42724 1.8125
-0.028367 0.40155 1.8104
-0.028369 0.38259 1.8107
-0.028407 0.35704 1.8107
-0.028441 0.33846 1.8118
-0.028473 0.31255 1.813
-0.028494 0.29407 1.8149
-0.028542 0.26814 1.8133
-0.028512 0.24897 1.811
-0.028532 0.22317 1.8112
-0.028492 0.20419 1.8098
-0.028518 0.17807 1.8092
-0.028486 0.15939 1.8052
-0.028426 0.13316 1.8033
-0.028384 0.11429 1.8024
-0.028349 0.088438 1.7988
-0.028362 0.069725 1.7961
-0.028332 0.043973 1.7941
-0.028383 0.025455 1.7988
-0.028346 -0.00029243 1.7939
-0.028359 -0.018916 1.7977
-0.028274 -0.044513 1.79
-0.028264 -0.063071 1.7887
-0.028128 -0.088443 1.7825
-0.028109 -0.10668 1.7801
-0.028089 -0.13196 1.7772
-0.028075 -0.15042 1.7768
-0.028077 -0.17584 1.7815
-0.028343 -0.19661 1.7941
-0.028291 -0.2229 1.8022
-0.028123 -0.2413 1.7904
-0.026907 -0.24987 1.7096
-0.022569 -0.22705 1.4272
-0.017572 -0.19513 1.122
-0.012086 -0.14163 0.77192
-0.011227 -0.14151 0.71487
-0.010633 -0.14072 0.67693
-0.010372 -0.14684 0.65906
-0.010286 -0.15261 0.6542
-0.010158 -0.15996 0.6473
-0.010023 -0.16435 0.63694
-0.0099047 -0.17216 0.6302
-0.0097913 -0.1771 0.62707
-0.0096783 -0.18457 0.61799
-0.0095973 -0.18923 0.61525
-0.009542 -0.1966 0.61204
-0.0095073 -0.20234 0.60977
-0.0093815 -0.20982 0.60521
-0.0093412 -0.21506 0.60248
-0.0092842 -0.22236 0.59696
-0.0092716 -0.22816 0.5948
-0.0092165 -0.23612 0.5917
-0.048294 0.67219 1.7626
-0.049117 0.65684 1.7807
-0.049619 0.64444 1.799
-0.050176 0.62653 1.8225
-0.050075 0.6049 1.8127
-0.049818 0.57788 1.8051
-0.04994 0.55947 1.8058
-0.050177 0.53582 1.815
-0.050176 0.51772 1.8137
-0.050304 0.49118 1.8172
-0.05028 0.47275 1.8139
-0.050271 0.4469 1.8152
-0.050296 0.42792 1.8146
-0.050287 0.4021 1.8123
-0.050258 0.38321 1.8124
-0.050408 0.35713 1.8165
-0.050363 0.33878 1.8137
-0.050477 0.31307 1.8163
-0.050448 0.2942 1.8148
-0.050518 0.26865 1.8168
-0.050497 0.24927 1.8142
-0.050496 0.22331 1.8143
-0.050478 0.20446 1.8122
-0.050453 0.17833 1.8114
-0.050486 0.15945 1.8105
-0.050383 0.13336 1.8069
-0.050306 0.11453 1.8041
-0.050192 0.088579 1.803
-0.05016 0.06984 1.801
-0.050127 0.044109 1.8
-0.05021 0.025492 1.8028
-0.050138 -0.00029503 1.7986
-0.050099 -0.018919 1.7999
-0.050041 -0.044616 1.7947
-0.05001 -0.063216 1.7942
-0.049889 -0.088642 1.7871
-0.049766 -0.10702 1.7824
-0.049695 -0.13219 1.7799
-0.04967 -0.15052 1.7824
-0.049735 -0.17615 1.7813
-0.049839 -0.19559 1.7857
-0.050257 -0.22407 1.8092
-0.050245 -0.24257 1.8119
-0.049192 -0.26171 1.7543
-0.043919 -0.24992 1.5652
-0.036852 -0.23126 1.3309
-0.024517 -0.16124 0.88492
-0.02094 -0.14981 0.75838
-0.019375 -0.14465 0.69582
-0.018757 -0.14978 0.67216
-0.018257 -0.15325 0.65582
-0.018094 -0.16138 0.65097
-0.01791 -0.1662 0.64373
-0.017615 -0.17297 0.63452
-0.017533 -0.17822 0.62983
-0.017305 -0.18486 0.62182
-0.017214 -0.19058 0.61711
-0.017051 -0.1982 0.61455
-0.01694 -0.20285 0.61242
-0.01683 -0.21061 0.6094
-0.016726 -0.21624 0.60633
-0.0166 -0.22376 0.60107
-0.016591 -0.22865 0.59855
-0.016496 -0.23612 0.59456
-0.069525 0.67534 1.7591
-0.070482 0.65616 1.7816
-0.071483 0.64833 1.8013
-0.07214 0.62758 1.8218
-0.072107 0.60854 1.8151
-0.071873 0.57898 1.8055
-0.071835 0.55978 1.8098
-0.07216 0.53664 1.8177
-0.072269 0.51753 1.817
-0.07226 0.49202 1.8189
-0.072284 0.4733 1.8158
-0.072296 0.44718 1.817
-0.072339 0.42817 1.8171
-0.072296 0.40281 1.8159
-0.072303 0.38335 1.8144
-0.072395 0.35803 1.8164
-0.072423 0.3389 1.8144
-0.072445 0.31317 1.8163
-0.072534 0.29465 1.8162
-0.072593 0.26861 1.8167
-0.072549 0.2496 1.8159
-0.072563 0.22365 1.8168
-0.072503 0.20468 1.8157
-0.072487 0.17873 1.8126
-0.072407 0.15966 1.8124
-0.072472 0.13376 1.8117
-0.072295 0.11491 1.81
-0.072251 0.08874 1.8084
-0.072184 0.069999 1.8031
-0.072088 0.044175 1.8026
-0.072184 0.025518 1.8035
-0.07212 -0.00029888 1.8022
-0.071955 -0.018981 1.8002
-0.07179 -0.044632 1.797
-0.071769 -0.063237 1.7966
-0.071637 -0.088833 1.7939
-0.071596 -0.10737 1.793
-0.071504 -0.13261 1.7907
-0.071442 -0.15102 1.7874
-0.071459 -0.1767 1.7851
-0.071455 -0.19603 1.7858
-0.072061 -0.22398 1.8084
-0.072151 -0.24351 1.8165
-0.071893 -0.2662 1.8076
-0.066698 -0.2683 1.671
-0.060777 -0.25747 1.5204
-0.044556 -0.20275 1.1098
-0.033007 -0.16301 0.8281
-0.028653 -0.14933 0.71921
-0.027622 -0.15406 0.69258
-0.026672 -0.15469 0.671
-0.026064 -0.16137 0.6517
-0.025923 -0.16721 0.64953
-0.025593 -0.17476 0.6412
-0.025416 -0.17915 0.63385
-0.025073 -0.18692 0.62582
-0.024913 -0.19173 0.62136
-0.024581 -0.19881 0.61695
-0.024477 -0.20462 0.6145
-0.024297 -0.21197 0.61107
-0.024209 -0.21764 0.60837
-0.024067 -0.22481 0.60553
-0.02401 -0.23062 0.60342
-0.02391 -0.23815 0.59944
-0.090919 0.67543 1.7611
-0.092148 0.65581 1.7808
-0.093561 0.64837 1.8069
-0.094188 0.62777 1.8188
-0.094355 0.60857 1.8206
-0.093888 0.58047 1.8125
-0.093784 0.56093 1.8109
-0.094303 0.53722 1.8185
-0.094334 0.51806 1.8218
-0.094495 0.4929 1.8215
-0.094274 0.47397 1.8202
-0.094336 0.44716 1.8194
-0.094345 0.42883 1.8201
-0.094405 0.40274 1.8203
-0.094373 0.38396 1.8147
-0.094491 0.35798 1.8178
-0.094436 0.33934 1.8188
-0.094546 0.31345 1.818
-0.094527 0.2947 1.8185
-0.0947 0.26926 1.8212
-0.094624 0.24998 1.8177
-0.094665 0.22392 1.8183
-0.0947 0.20501 1.8182
-0.094562 0.17886 1.8174
-0.094457 0.16001 1.8142
-0.094411 0.13386 1.8135
-0.094429 0.11508 1.8132
-0.094193 0.088855 1.8104
-0.094148 0.070108 1.8082
-0.09413 0.044213 1.804
-0.094199 0.025564 1.8102
-0.093987 -0.00030386 1.8045
-0.094029 -0.019011 1.8048
-0.093698 -0.044701 1.7977
-0.093671 -0.063337 1.7975
-0.093616 -0.088878 1.7945
-0.093497 -0.10761 1.7954
-0.093406 -0.1329 1.7925
-0.093327 -0.15166 1.791
-0.09315 -0.17712 1.7887
-0.093186 -0.19597 1.7908
-0.093711 -0.22277 1.7927
-0.094504 -0.24232 1.8174
-0.094475 -0.26797 1.8186
-0.091317 -0.27835 1.7639
-0.085734 -0.28295 1.6265
-0.0708 -0.24963 1.3562
-0.055584 -0.21157 1.0675
-0.040611 -0.16252 0.77831
-0.037011 -0.1589 0.71156
-0.035657 -0.16041 0.68688
-0.034363 -0.1636 0.66104
-0.03387 -0.16762 0.65174
-0.033649 -0.1758 0.64648
-0.033283 -0.18147 0.64075
-0.032957 -0.18843 0.63228
-0.032736 -0.19286 0.62655
-0.032356 -0.20063 0.62086
-0.032249 -0.20534 0.61661
-0.031789 -0.21261 0.61333
-0.031775 -0.21804 0.61046
-0.03156 -0.22565 0.60593
-0.031456 -0.23133 0.60385
-0.031291 -0.24009 0.60451
-0.11201 0.67396 1.7575
-0.1134 0.65683 1.7807
-0.11548 0.64869 1.8075
-0.11611 0.62734 1.8208
-0.1163 0.60887 1.8218
-0.11585 0.58016 1.8116
-0.11572 0.56118 1.813
-0.11655 0.53805 1.8201
-0.1163 0.5193 1.822
-0.11644 0.49371 1.8217
-0.11671 0.47494 1.8236
-0.11657 0.44886 1.8249
-0.11647 0.42909 1.8206
-0.11647 0.40306 1.8233
-0.11646 0.3845 1.8198
-0.11645 0.3588 1.8185
-0.11651 0.33962 1.8176
-0.1168 0.31392 1.8216
-0.11667 0.29502 1.8203
-0.11694 0.26936 1.8227
-0.11685 0.25057 1.8217
-0.11681 0.22422 1.8219
-0.11674 0.20531 1.821
-0.11682 0.17937 1.8199
-0.11664 0.16012 1.8177
-0.11647 0.1341 1.8142
-0.11635 0.11515 1.8135
-0.11631 0.089087 1.8122
-0.11607 0.070251 1.8109
-0.116 0.044281 1.8085
-0.11622 0.02562 1.8123
-0.11601 -0.00031034 1.8091
-0.11589 -0.019022 1.8044
-0.1155 -0.044782 1.8016
-0.11571 -0.063447 1.8025
-0.11537 -0.089091 1.7974
-0.11557 -0.10769 1.7985
-0.11546 -0.13331 1.7947
-0.11537 -0.15204 1.7933
-0.11502 -0.17743 1.7915
-0.11519 -0.19612 1.7924
-0.11533 -0.22261 1.7934
-0.11639 -0.24184 1.8162
-0.11674 -0.27088 1.8236
-0.11617 -0.28939 1.8207
-0.11171 -0.30081 1.7499
-0.10138 -0.28962 1.564
-0.086278 -0.26734 1.3355
-0.061552 -0.20137 0.95771
-0.04926 -0.17033 0.76572
-0.045607 -0.16532 0.7115
-0.043691 -0.16912 0.6842
-0.042552 -0.17054 0.66639
-0.04166 -0.17631 0.64965
-0.041496 -0.18213 0.64728
-0.041 -0.19051 0.6388
-0.040722 -0.19451 0.63276
-0.040283 -0.20189 0.62749
-0.039886 -0.207 0.62311
-0.039692 -0.21429 0.61937
-0.039463 -0.22002 0.61555
-0.039225 -0.22792 0.61129
-0.039155 -0.23352 0.61062
-0.039047 -0.24055 0.60828
-0.13332 0.67257 1.7585
-0.13512 0.6563 1.7809
-0.13725 0.64912 1.8083
-0.13798 0.62683 1.8199
-0.13788 0.60837 1.8181
-0.13782 0.57959 1.8109
-0.13789 0.56205 1.8145
-0.13858 0.53842 1.8227
-0.13866 0.51966 1.8237
-0.13871 0.49389 1.8252
-0.13867 0.47558 1.8241
-0.13865 0.44884 1.8261
-0.13859 0.4304 1.8242
-0.13875 0.40412 1.8246
-0.13864 0.38472 1.8244
-0.13865 0.35895 1.8217
-0.1386 0.33978 1.8204
-0.13895 0.31449 1.8231
-0.13901 0.2957 1.8231
-0.13899 0.26965 1.8266
-0.13917 0.25084 1.8259
-0.13904 0.22464 1.8235
-0.1389 0.20565 1.8247
-0.13886 0.17939 1.8222
-0.13887 0.16051 1.8204
-0.13861 0.13429 1.8178
-0.13853 0.11526 1.8146
-0.13831 0.089196 1.8135
-0.13818 0.070327 1.8127
-0.13797 0.044338 1.8104
-0.13827 0.025619 1.8124
-0.13803 -0.0003182 1.8121
-0.13796 -0.019084 1.8109
-0.13746 -0.044847 1.8024
-0.13742 -0.063534 1.8035
-0.13733 -0.089118 1.8
-0.13727 -0.10776 1.8017
-0.13714 -0.13357 1.7981
-0.13704 -0.15211 1.7977
-0.13693 -0.17764 1.7953
-0.13718 -0.19673 1.7948
-0.13713 -0.22248 1.7964
-0.13772 -0.24163 1.803
-0.13819 -0.26788 1.8159
-0.13848 -0.29034 1.8311
-0.13764 -0.31094 1.8089
-0.13015 -0.31342 1.7185
-0.11927 -0.30833 1.5576
-0.10151 -0.28083 1.3317
-0.071327 -0.20723 0.92617
