# .PCD v0.7 - Point Cloud Data file format
VERSION 0.7
FIELDS x y z
SIZE 4 4 4
TYPE F F F
COUNT 1 1 1
WIDTH 1923
HEIGHT 1
VIEWPOINT 0 0 0 1 0 0 0
POINTS 1923
DATA ascii
0.28362 -0.03968 1.5915
0.28378 -0.056242 1.591
0.28451 -0.079546 1.5962
0.28586 -0.096227 1.6033
0.28662 -0.1196 1.6028
0.28641 -0.13619 1.6006
0.28647 -0.15903 1.5994
0.28464 -0.17512 1.601
0.28393 -0.19775 1.5984
0.2835 -0.21347 1.5902
0.28262 -0.23584 1.5871
0.28258 -0.25211 1.5894
0.28279 -0.2757 1.5864
0.28292 -0.2919 1.5858
0.28223 -0.31373 1.5795
0.28035 -0.32804 1.5749
0.27959 -0.34964 1.5703
0.28451 -0.37287 1.6008
0.28987 -0.40313 1.6279
0.29509 -0.42564 1.6529
0.2943 -0.44899 1.6533
0.29377 -0.46524 1.6554
0.29494 -0.49261 1.6577
0.29516 -0.50844 1.6544
0.29403 -0.52936 1.6473
0.29163 -0.54194 1.6424
0.29005 -0.56198 1.6271
0.28957 -0.57702 1.6209
0.28796 -0.59759 1.6119
0.288 -0.61595 1.6082
0.28697 -0.6375 1.6017
0.09417 0.21687 0.56671
0.093695 0.2069 0.56416
0.093163 0.2005 0.56134
0.09311 0.19333 0.56329
0.093013 0.18727 0.56089
0.09339 0.18021 0.56337
0.093535 0.17427 0.56239
0.094138 0.16767 0.56758
0.094232 0.16174 0.56783
0.094966 0.15468 0.57127
0.095036 0.14891 0.5727
0.095724 0.14155 0.57643
0.096099 0.13631 0.57818
0.096837 0.1289 0.58199
0.097079 0.12363 0.58405
0.09762 0.11611 0.58734
0.098371 0.11058 0.59111
0.099124 0.10274 0.59545
0.099841 0.097384 0.60219
0.10034 0.089618 0.60415
0.10161 0.083949 0.6123
0.10298 0.076011 0.6187
0.10434 0.070729 0.62857
0.106 0.062492 0.6362
0.10901 0.058011 0.6569
0.11366 0.050526 0.68677
0.17219 0.06556 1.0309
0.26065 0.077511 1.573
0.26449 0.06183 1.5979
0.26829 0.039564 1.611
0.26898 0.022869 1.6184
0.26944 -0.00036727 1.6188
0.26944 -0.017197 1.6192
0.26949 -0.040645 1.6212
0.2711 -0.057783 1.6274
0.27233 -0.081286 1.6378
0.27239 -0.09839 1.6379
0.27246 -0.1218 1.6371
0.27256 -0.13942 1.645
0.27333 -0.1633 1.6476
0.27315 -0.18023 1.6459
0.27266 -0.20295 1.6399
0.27187 -0.21964 1.6378
0.27138 -0.24266 1.6364
0.27434 -0.26237 1.6452
0.27443 -0.28548 1.6451
0.27397 -0.30208 1.6422
0.27188 -0.32329 1.6323
0.27137 -0.33959 1.6291
0.2782 -0.37081 1.6642
0.27962 -0.39219 1.6838
0.27895 -0.41809 1.6829
0.28099 -0.43518 1.6827
0.28016 -0.45942 1.6848
0.28256 -0.47802 1.6991
0.28226 -0.50617 1.6983
0.28157 -0.52244 1.6944
0.28049 -0.5443 1.6911
0.27997 -0.55988 1.6861
0.27883 -0.58198 1.6714
0.27799 -0.59674 1.6661
0.27696 -0.6184 1.6613
0.27574 -0.63234 1.6557
0.27397 -0.64943 1.6471
0.086974 0.21684 0.56559
0.086445 0.20643 0.56248
0.086077 0.20062 0.56198
0.086387 0.19366 0.56028
0.08608 0.18699 0.56115
0.086611 0.17988 0.56299
0.086672 0.17457 0.56148
0.087189 0.16739 0.56682
0.087257 0.1616 0.56519
0.088031 0.15469 0.57158
0.088034 0.14876 0.57255
0.088722 0.1417 0.5759
0.088924 0.13621 0.57765
0.089654 0.12891 0.58098
0.089839 0.12316 0.58084
0.090654 0.11591 0.58671
0.091181 0.1104 0.59112
0.091601 0.10256 0.59578
0.092229 0.097305 0.60065
0.092912 0.089513 0.60484
0.094355 0.08402 0.61142
0.0949 0.075729 0.61748
0.096721 0.070791 0.62436
0.097362 0.062406 0.63068
0.10043 0.057423 0.65278
0.10273 0.049526 0.67222
0.12294 0.050551 0.79724
0.24469 0.078267 1.5912
0.24902 0.062819 1.6133
0.25545 0.040628 1.6579
0.25737 0.023524 1.6691
0.2578 -0.00036307 1.6757
0.25872 -0.017885 1.6853
0.25931 -0.042132 1.6863
0.26028 -0.059659 1.691
0.26119 -0.084175 1.697
0.26199 -0.10196 1.7009
0.26185 -0.12637 1.6996
0.26289 -0.14418 1.7054
0.26266 -0.16851 1.7046
0.26241 -0.1861 1.7054
0.26201 -0.21093 1.7027
0.26259 -0.22903 1.7005
0.26287 -0.25331 1.7031
0.2625 -0.27095 1.7027
0.26252 -0.29492 1.6988
0.26209 -0.31241 1.6958
0.26371 -0.33905 1.7125
0.26624 -0.36054 1.7253
0.26633 -0.38558 1.7288
0.26601 -0.40436 1.7264
0.26638 -0.42868 1.7212
0.26757 -0.448 1.7299
0.26722 -0.47207 1.7377
0.26683 -0.49174 1.7349
0.26741 -0.51485 1.7308
0.26711 -0.53246 1.7262
0.26627 -0.55512 1.7235
0.26628 -0.57136 1.7272
0.26443 -0.594 1.7198
0.26458 -0.6103 1.7074
0.26344 -0.63494 1.6997
0.2626 -0.65056 1.694
0.2598 -0.66757 1.6778
0.079316 0.21414 0.55564
0.079574 0.20672 0.56102
0.079177 0.20062 0.55881
0.07944 0.19246 0.56041
0.079266 0.18642 0.5596
0.079588 0.18 0.56203
0.079743 0.17361 0.56094
0.080282 0.16728 0.5656
0.080513 0.16102 0.56528
0.081033 0.15458 0.56924
0.081152 0.149 0.57068
0.081703 0.14185 0.57685
0.081969 0.13621 0.5773
0.082305 0.12868 0.58183
0.08279 0.1233 0.58182
0.083234 0.11534 0.58523
0.083849 0.11017 0.59017
0.084499 0.10247 0.59448
0.08508 0.097258 0.60093
0.08568 0.089222 0.60397
0.086739 0.083971 0.61142
0.087468 0.075796 0.61488
0.088588 0.070416 0.62442
0.089546 0.06229 0.63109
0.091798 0.056806 0.64889
0.094213 0.048875 0.65872
0.10352 0.046237 0.72859
0.20176 0.06961 1.4161
0.2356 0.06449 1.6601
0.24274 0.041966 1.7094
0.24435 0.024253 1.7205
0.24496 -0.00036109 1.7235
0.24611 -0.018287 1.734
0.24606 -0.043205 1.7349
0.246 -0.061514 1.7376
0.2478 -0.086573 1.7392
0.2479 -0.10467 1.7471
0.24807 -0.13038 1.7504
0.24869 -0.1485 1.7528
0.24925 -0.17346 1.7547
0.24967 -0.19229 1.7548
0.2493 -0.21761 1.7565
0.24955 -0.23611 1.7606
0.2491 -0.26102 1.7572
0.24936 -0.27886 1.7545
0.25022 -0.30407 1.7595
0.25095 -0.32395 1.7677
0.25161 -0.35081 1.7686
0.25193 -0.37006 1.7761
0.25235 -0.39544 1.7792
0.25237 -0.41426 1.7763
0.25262 -0.44057 1.7762
0.2537 -0.46071 1.7816
0.25435 -0.48585 1.7826
0.25427 -0.50509 1.7865
0.25462 -0.5291 1.7868
0.25394 -0.55057 1.7844
0.2531 -0.574 1.7854
0.25237 -0.59042 1.7825
0.25134 -0.61333 1.7748
0.25063 -0.63044 1.767
0.2493 -0.65286 1.7533
0.24827 -0.66392 1.7397
0.2452 -0.68472 1.7306
0.072824 0.21592 0.55988
0.072468 0.2061 0.55902
0.072474 0.20044 0.55678
0.072421 0.19273 0.56111
0.072594 0.18668 0.55806
0.072895 0.18024 0.5624
0.073037 0.17383 0.56069
0.0734 0.16728 0.56489
0.073532 0.16109 0.56515
0.074072 0.15458 0.56987
0.074256 0.14879 0.57132
0.074571 0.14185 0.57521
0.074914 0.13605 0.57675
0.075345 0.12876 0.57954
0.07566 0.12337 0.58272
0.076198 0.11552 0.58614
0.076564 0.11031 0.59049
0.077001 0.10248 0.59514
0.077803 0.097236 0.60109
0.078254 0.089195 0.60329
0.079188 0.084028 0.61108
0.080026 0.075897 0.6154
0.080826 0.070386 0.62541
0.081631 0.062235 0.63166
0.08328 0.056816 0.64347
0.085681 0.048856 0.65924
0.091542 0.044798 0.70623
0.14661 0.055552 1.1294
0.22222 0.066595 1.7114
0.22377 0.042234 1.7278
0.22508 0.024503 1.7379
0.2256 -0.00035059 1.7384
0.22625 -0.018461 1.7432
0.22694 -0.043511 1.7485
0.22711 -0.061688 1.7488
0.22736 -0.086956 1.7539
0.22768 -0.10548 1.7556
0.22794 -0.13063 1.7573
0.22856 -0.14891 1.7598
0.22856 -0.17448 1.7595
0.22918 -0.19299 1.7621
0.22903 -0.21866 1.7693
0.22914 -0.23678 1.7691
0.2292 -0.26217 1.7667
0.22967 -0.28085 1.7667
0.23023 -0.30661 1.7715
0.23075 -0.32642 1.776
0.23117 -0.35281 1.7786
0.23169 -0.37156 1.7809
0.23163 -0.39724 1.7831
0.23208 -0.41668 1.7839
0.23281 -0.44284 1.7887
0.23373 -0.46245 1.7916
0.23347 -0.48877 1.794
0.23394 -0.50841 1.7962
0.23362 -0.5342 1.7955
0.23409 -0.55309 1.7954
0.2338 -0.57939 1.8007
0.23351 -0.59654 1.8036
0.23274 -0.62183 1.7958
0.23286 -0.63864 1.7918
0.2322 -0.66135 1.7789
0.23111 -0.6763 1.7695
0.22812 -0.70099 1.7511
0.066474 0.21254 0.55891
0.065748 0.20593 0.55837
0.06551 0.20059 0.55556
0.065735 0.1921 0.55991
0.065849 0.1867 0.55881
0.066087 0.18036 0.56181
0.066239 0.17406 0.56145
0.066576 0.16692 0.56529
0.066704 0.16116 0.56583
0.067033 0.15436 0.56897
0.067135 0.14887 0.57211
0.067837 0.14156 0.57569
0.067812 0.13598 0.57755
0.068397 0.12873 0.58035
0.068634 0.12316 0.58207
0.069015 0.11568 0.58686
0.069454 0.11038 0.59133
0.069863 0.10236 0.5955
0.07055 0.097149 0.60065
0.070847 0.089 0.60324
0.071884 0.083636 0.61197
0.072299 0.07587 0.61485
0.073371 0.070489 0.62329
0.074102 0.062284 0.63033
0.075556 0.056422 0.64372
0.076812 0.048699 0.65538
0.082018 0.044365 0.69728
0.12148 0.050765 1.0356
0.20301 0.067002 1.7296
0.20437 0.04256 1.7401
0.20494 0.024632 1.7443
0.20547 -0.00033991 1.748
0.20605 -0.018495 1.7515
0.20626 -0.043634 1.7541
0.20637 -0.06197 1.7552
0.20678 -0.087252 1.7592
0.20696 -0.10566 1.7613
0.20727 -0.13096 1.761
0.20769 -0.14937 1.7644
0.20809 -0.17492 1.7659
0.20811 -0.1933 1.7703
0.20838 -0.21895 1.7719
0.20829 -0.23762 1.7728
0.20846 -0.26324 1.7723
0.2091 -0.28222 1.778
0.20913 -0.30787 1.7762
0.20967 -0.32713 1.7835
0.20985 -0.35332 1.785
0.21049 -0.37228 1.7889
0.21057 -0.39855 1.7869
0.21093 -0.41749 1.7872
0.2115 -0.44443 1.7927
0.21225 -0.46415 1.798
0.21198 -0.49162 1.8013
0.21284 -0.51006 1.8048
0.21308 -0.53599 1.8018
0.21306 -0.55647 1.8092
0.21266 -0.58088 1.8115
0.21288 -0.59969 1.8078
0.21299 -0.62422 1.8022
0.21234 -0.64091 1.799
0.21143 -0.6641 1.7907
0.21038 -0.67969 1.7812
0.20943 -0.69929 1.7633
0.058919 0.21423 0.5586
0.058978 0.20616 0.55634
0.058836 0.20031 0.55622
0.059036 0.19237 0.56024
0.059081 0.18692 0.55922
0.059352 0.18057 0.56236
0.059485 0.17411 0.56148
0.05979 0.16712 0.56498
0.059875 0.16129 0.56652
0.060199 0.1545 0.56962
0.06029 0.14884 0.57152
0.06076 0.14171 0.57531
0.060898 0.13608 0.57693
0.061291 0.12882 0.58017
0.061517 0.12331 0.58281
0.061972 0.11545 0.58701
0.062318 0.11049 0.5921
0.062738 0.10249 0.59471
0.063354 0.097273 0.60133
0.06362 0.089115 0.60403
0.064514 0.083745 0.61219
0.064924 0.075757 0.61566
0.065975 0.070581 0.62411
0.066697 0.062055 0.63031
0.067591 0.056498 0.64428
0.06896 0.048385 0.65414
0.073108 0.044367 0.69574
0.098999 0.046261 0.93931
0.18325 0.067447 1.7368
0.18386 0.042768 1.7463
0.18448 0.024721 1.7493
0.18463 -0.00032957 1.7534
0.18515 -0.01854 1.7568
0.18529 -0.043797 1.7586
0.18562 -0.062072 1.7611
0.18585 -0.087459 1.7628
0.18603 -0.10586 1.7644
0.18639 -0.13113 1.7673
0.18653 -0.14971 1.7688
0.18662 -0.17513 1.769
0.18677 -0.19361 1.7726
0.18702 -0.2191 1.7723
0.18741 -0.23812 1.7772
0.18772 -0.26422 1.7797
0.18777 -0.28262 1.7803
0.18806 -0.30881 1.7825
0.18829 -0.32789 1.7858
0.18887 -0.35384 1.7876
0.18903 -0.37312 1.7912
0.18933 -0.39919 1.7905
0.18989 -0.4191 1.7972
0.19007 -0.44599 1.8009
0.19066 -0.46539 1.8048
0.19099 -0.49235 1.8049
0.19143 -0.51178 1.81
0.19144 -0.53885 1.8091
0.19173 -0.55711 1.8128
0.19173 -0.58333 1.8149
0.19206 -0.60174 1.8149
0.19197 -0.62896 1.8148
0.19226 -0.64747 1.8103
0.19145 -0.67109 1.808
0.19084 -0.68757 1.8019
0.1899 -0.70915 1.79
0.052034 0.21425 0.55781
0.052192 0.20637 0.55962
0.052145 0.19963 0.55836
0.052381 0.19257 0.56118
0.052384 0.18671 0.55983
0.052594 0.18034 0.56298
0.052549 0.1742 0.56317
0.052982 0.16729 0.56661
0.053005 0.16144 0.56715
0.053379 0.15438 0.5707
0.053483 0.14887 0.57252
0.053774 0.14186 0.57573
0.053948 0.13622 0.57713
0.054266 0.12896 0.57931
0.054507 0.12351 0.58348
0.054806 0.11558 0.58722
0.055263 0.11033 0.5929
0.055676 0.10263 0.59525
0.056133 0.097122 0.60181
0.056369 0.08908 0.60464
0.057115 0.083973 0.61018
0.057448 0.075802 0.61638
0.058454 0.070387 0.62576
0.059093 0.062128 0.63083
0.059885 0.056832 0.64505
0.061014 0.048229 0.65318
0.064306 0.044208 0.69586
0.082257 0.043563 0.883
0.16252 0.067545 1.7413
0.16301 0.042871 1.7484
0.16345 0.024772 1.7537
0.1637 -0.00032016 1.7555
0.16404 -0.018551 1.7594
0.16423 -0.043811 1.7607
0.16445 -0.062133 1.7632
0.16482 -0.087586 1.7656
0.16486 -0.10597 1.7672
0.16511 -0.1314 1.7709
0.16527 -0.14987 1.771
0.16534 -0.17523 1.7711
0.1654 -0.19382 1.7738
0.1657 -0.21933 1.7735
0.16602 -0.23838 1.7777
0.16632 -0.2645 1.7818
0.16658 -0.28292 1.7844
0.16672 -0.30933 1.7868
0.16693 -0.32824 1.7895
0.16736 -0.35437 1.7897
0.16756 -0.37351 1.7965
0.1679 -0.4001 1.7979
0.16851 -0.41957 1.8017
0.16858 -0.44664 1.8074
0.16894 -0.46682 1.8098
0.16943 -0.49314 1.8105
0.17001 -0.51329 1.8139
0.17035 -0.54016 1.8162
0.17033 -0.55962 1.8229
0.17068 -0.58525 1.8225
0.17081 -0.60618 1.8247
0.17089 -0.63128 1.8206
0.17071 -0.65068 1.8225
0.17024 -0.67583 1.8181
0.16985 -0.69278 1.8119
0.16909 -0.71611 1.7988
0.045316 0.21441 0.56161
0.045471 0.20666 0.55775
0.045492 0.20069 0.5593
0.045634 0.19283 0.56137
0.045546 0.18688 0.56036
0.045852 0.18039 0.56271
0.045744 0.17436 0.56329
0.046153 0.16778 0.56614
0.04605 0.16161 0.5677
0.046497 0.15453 0.57131
0.046587 0.14894 0.57277
0.04684 0.14159 0.5752
0.047 0.13636 0.57771
0.047181 0.12909 0.58023
0.047504 0.12369 0.58467
0.047768 0.11579 0.58814
0.048092 0.11044 0.591
0.048492 0.10255 0.59514
0.048833 0.097269 0.60076
0.049072 0.089379 0.60526
0.049702 0.084058 0.61081
0.049889 0.07571 0.61489
0.050859 0.070459 0.62732
0.051445 0.062424 0.63149
0.052751 0.057169 0.64903
0.053137 0.048279 0.65387
0.056005 0.044221 0.6959
0.071637 0.043611 0.88392
0.14152 0.067731 1.7447
0.14197 0.042931 1.7527
0.1425 0.024828 1.7551
0.14277 -0.00031213 1.7574
0.14294 -0.018587 1.7625
0.14315 -0.043846 1.7654
0.14327 -0.062186 1.7663
0.14354 -0.087686 1.7684
0.14363 -0.10607 1.7697
0.14379 -0.13155 1.772
0.14375 -0.14997 1.7715
0.1439 -0.17526 1.7728
0.14392 -0.19379 1.7747
0.14425 -0.21943 1.7749
0.14454 -0.23855 1.7804
0.14455 -0.26379 1.778
0.14506 -0.2831 1.7862
0.14521 -0.30962 1.7864
0.14552 -0.32849 1.7914
0.14588 -0.3547 1.7915
0.14605 -0.37437 1.7979
0.14653 -0.40068 1.8004
0.1468 -0.42148 1.8051
0.14695 -0.44725 1.8092
0.14755 -0.46784 1.8151
0.14774 -0.49383 1.8151
0.14817 -0.51476 1.821
0.1484 -0.5407 1.8195
0.14866 -0.56089 1.8259
0.14897 -0.5894 1.8304
0.14916 -0.60822 1.8303
0.14915 -0.6343 1.8301
0.14919 -0.65321 1.8313
0.14892 -0.67712 1.8266
0.14854 -0.69673 1.824
0.14788 -0.71986 1.8152
0.039006 0.2143 0.55821
0.038773 0.20728 0.56083
0.038834 0.19996 0.56005
0.038821 0.1931 0.56254
0.038788 0.18758 0.56269
0.039061 0.18065 0.5631
0.03896 0.17467 0.5633
0.039307 0.16751 0.5662
0.03918 0.16172 0.56755
0.039546 0.15455 0.5721
0.03967 0.14906 0.57325
0.039926 0.14192 0.57569
0.040014 0.1364 0.57749
0.040176 0.12929 0.5819
0.040491 0.12383 0.5853
0.040674 0.11608 0.58865
0.040971 0.1107 0.59081
0.041288 0.10283 0.59566
0.041578 0.097352 0.60054
0.041781 0.089455 0.60548
0.042353 0.084087 0.61163
0.042598 0.075775 0.61544
0.043301 0.07074 0.62697
0.043799 0.062518 0.63342
0.045025 0.057307 0.65221
0.045873 0.048983 0.66221
0.047983 0.044006 0.69455
0.064154 0.045755 0.92835
0.12063 0.067798 1.7463
0.12096 0.042987 1.7543
0.12135 0.024846 1.7571
0.1216 -0.00030524 1.7615
0.12173 -0.018582 1.7638
0.12193 -0.043876 1.7663
0.12204 -0.062221 1.7701
0.12224 -0.087753 1.7708
0.12237 -0.10624 1.7724
0.12236 -0.13165 1.7735
0.12233 -0.15006 1.773
0.12247 -0.17529 1.7729
0.12243 -0.19392 1.775
0.12268 -0.21954 1.775
0.12297 -0.23866 1.7788
0.12298 -0.264 1.7793
0.12351 -0.28299 1.7845
0.12338 -0.30946 1.7873
0.12391 -0.32867 1.7905
0.12422 -0.35489 1.793
0.12466 -0.37467 1.8014
0.12478 -0.40111 1.8033
0.12502 -0.42181 1.8069
0.12514 -0.44783 1.8097
0.12571 -0.46839 1.8167
0.12596 -0.49433 1.8191
0.12648 -0.51521 1.8247
0.12641 -0.54192 1.8258
0.12694 -0.56293 1.8321
0.12717 -0.58995 1.8341
0.12728 -0.60983 1.8356
0.12746 -0.63613 1.8387
0.12739 -0.65477 1.8365
0.12736 -0.68053 1.8328
0.12711 -0.69901 1.8302
0.1267 -0.72423 1.8321
0.032145 0.21476 0.56152
0.032108 0.20744 0.55981
0.032046 0.20148 0.56013
0.032041 0.19355 0.56236
0.032034 0.1879 0.56308
0.032246 0.18086 0.56484
0.032188 0.17521 0.56415
0.032446 0.16762 0.56809
0.032387 0.16199 0.56929
0.032641 0.1547 0.5735
0.032741 0.14918 0.57366
0.032967 0.14202 0.57762
0.033059 0.13677 0.58013
0.03328 0.1294 0.58385
0.033415 0.1241 0.58642
0.03363 0.11631 0.58911
0.033809 0.11078 0.59125
0.034062 0.10293 0.59869
0.034307 0.097712 0.60173
0.034518 0.089698 0.60594
0.034984 0.084147 0.61231
0.035274 0.076144 0.6167
0.035674 0.070938 0.62819
0.036219 0.062754 0.63644
0.03717 0.057539 0.65317
0.038256 0.049359 0.6689
0.039628 0.044039 0.69705
0.057764 0.050032 1.0162
0.099632 0.067942 1.7498
0.099788 0.043025 1.7571
0.1002 0.024904 1.7594
0.10037 -0.00029941 1.7637
0.10047 -0.018608 1.7669
0.10065 -0.043941 1.7691
0.10078 -0.062348 1.7714
0.10085 -0.087808 1.7724
0.10096 -0.10631 1.7754
0.10095 -0.13171 1.7747
0.10097 -0.15006 1.7734
0.10091 -0.17539 1.7715
0.10101 -0.19392 1.7746
0.10118 -0.21964 1.7758
0.10132 -0.23862 1.7816
0.10155 -0.26435 1.7806
0.10184 -0.28318 1.7847
0.10179 -0.30966 1.7869
0.10227 -0.32881 1.7918
0.10247 -0.35513 1.7944
0.10287 -0.37556 1.8018
0.10297 -0.40147 1.8033
0.1033 -0.4222 1.8082
0.10357 -0.44861 1.811
0.10383 -0.46884 1.8171
0.10407 -0.49553 1.8244
0.10444 -0.51578 1.8264
0.10469 -0.54265 1.8283
0.10486 -0.564 1.8366
0.10501 -0.59191 1.8372
0.1054 -0.61066 1.844
0.10532 -0.63775 1.8424
0.10562 -0.65754 1.8425
0.10529 -0.68314 1.8401
0.10535 -0.70207 1.8422
0.10521 -0.72574 1.8363
0.025574 0.21701 0.55496
0.025342 0.20785 0.56179
0.025269 0.20209 0.56197
0.025335 0.19452 0.56267
0.025278 0.18844 0.56339
0.025426 0.18141 0.56577
0.025418 0.17543 0.56618
0.02558 0.16816 0.57005
0.025617 0.16229 0.57023
0.025837 0.15516 0.57388
0.025882 0.1496 0.57462
0.02603 0.14232 0.57799
0.026086 0.13685 0.58086
0.02622 0.12947 0.58467
0.026325 0.12429 0.58676
0.026578 0.11637 0.59044
0.026719 0.11095 0.59478
0.026839 0.1033 0.59905
0.027099 0.09786 0.60302
0.027226 0.089748 0.60929
0.027579 0.084435 0.61395
0.027852 0.076188 0.62057
0.028111 0.071126 0.62857
0.028573 0.063108 0.63683
0.029484 0.058297 0.65809
0.030211 0.049982 0.67817
0.032056 0.045146 0.70782
0.053701 0.058864 1.1988
0.078532 0.06801 1.7535
0.078792 0.043062 1.7595
0.078925 0.024932 1.7623
0.079051 -0.00029462 1.7664
0.079176 -0.018623 1.7672
0.079312 -0.043995 1.7713
0.079387 -0.062388 1.7724
0.079468 -0.087892 1.7754
0.079503 -0.10633 1.7766
0.079464 -0.13167 1.7749
0.079464 -0.15008 1.7744
0.079395 -0.17539 1.7722
0.079525 -0.19387 1.7746
0.079597 -0.2195 1.7749
0.0798 -0.23875 1.7812
0.079835 -0.26458 1.782
0.080264 -0.28351 1.7869
0.080192 -0.30982 1.789
0.080533 -0.32893 1.7939
0.080726 -0.35568 1.7966
0.081093 -0.37575 1.8038
0.081151 -0.40223 1.8079
0.081536 -0.42242 1.8129
0.081613 -0.44913 1.8146
0.081896 -0.46969 1.8182
0.0822 -0.49662 1.8274
0.082574 -0.51746 1.8324
0.082558 -0.54537 1.8311
0.082727 -0.56467 1.8382
0.082953 -0.59251 1.8404
0.083348 -0.61263 1.8452
0.083243 -0.63915 1.8435
0.083361 -0.65959 1.8496
0.083331 -0.68597 1.8485
0.083333 -0.70393 1.8463
0.083293 -0.73088 1.8443
0.018661 0.21538 0.5615
0.018574 0.20835 0.56267
0.018569 0.20217 0.56343
0.018655 0.19552 0.56595
0.018592 0.18916 0.56358
0.018681 0.18173 0.567
0.018636 0.17537 0.56764
0.018781 0.16827 0.5704
0.0188 0.16244 0.57188
0.018903 0.15556 0.57478
0.018945 0.15012 0.57625
0.019037 0.14309 0.57958
0.019074 0.13741 0.58159
0.019213 0.13002 0.58577
0.019299 0.12443 0.58808
0.019424 0.11677 0.59382
0.019544 0.1112 0.59748
0.019628 0.1034 0.60077
0.019813 0.098195 0.60632
0.019975 0.090325 0.61207
0.02017 0.084604 0.61578
0.020359 0.076377 0.62361
0.020518 0.07119 0.63056
0.020853 0.06321 0.64245
0.021649 0.058326 0.65988
0.022529 0.050383 0.68595
0.024967 0.048535 0.76424
0.049282 0.073939 1.5054
0.057354 0.068119 1.7585
0.057512 0.043153 1.7609
0.057614 0.024975 1.7651
0.057709 -0.00029124 1.7681
0.057802 -0.018655 1.7703
0.057925 -0.044022 1.7725
0.05796 -0.062509 1.7732
0.057981 -0.087957 1.7763
0.058032 -0.10639 1.7773
0.058017 -0.13172 1.7756
0.057993 -0.1502 1.7753
0.058 -0.17546 1.7737
0.058021 -0.19397 1.7742
0.058096 -0.21958 1.7758
0.058342 -0.23884 1.7832
0.058322 -0.26468 1.7828
0.058596 -0.28375 1.7871
0.058572 -0.31035 1.7887
0.058845 -0.32906 1.7958
0.058949 -0.35618 1.7995
0.059206 -0.37558 1.8047
0.059329 -0.40261 1.8087
0.059617 -0.42295 1.8153
0.059637 -0.44991 1.8182
0.059874 -0.47011 1.8247
0.060198 -0.49683 1.8303
0.060355 -0.51917 1.8335
0.060419 -0.54632 1.8349
0.060566 -0.56583 1.8448
0.060672 -0.59364 1.8484
0.061004 -0.61469 1.8521
0.061077 -0.64188 1.8507
0.061185 -0.66269 1.8579
0.061025 -0.6877 1.8513
0.061202 -0.70791 1.8533
0.061216 -0.73176 1.854
0.011867 0.21807 0.5683
0.011788 0.20843 0.5643
0.011759 0.20283 0.56503
0.011796 0.19563 0.56771
0.01179 0.18947 0.56478
0.011836 0.18291 0.56985
0.011817 0.17643 0.5697
0.011906 0.16971 0.5738
0.011887 0.16332 0.57361
0.011966 0.157 0.57761
0.011976 0.1514 0.57819
0.012008 0.14362 0.58192
0.01203 0.1377 0.5833
0.012139 0.13028 0.58789
0.012206 0.12456 0.59053
0.012261 0.11694 0.5958
0.012321 0.11169 0.59766
0.012431 0.10373 0.60302
0.012538 0.098296 0.60845
0.012596 0.090522 0.61322
0.012786 0.084932 0.62112
0.012872 0.076777 0.62591
0.012966 0.07154 0.63632
0.013247 0.063318 0.64388
0.013702 0.058862 0.66824
0.014192 0.050725 0.69278
0.017602 0.054607 0.85963
0.035485 0.085012 1.729
0.036148 0.068283 1.7594
0.036239 0.043225 1.7644
0.036305 0.025009 1.7685
0.036368 -0.00028888 1.7705
0.036428 -0.01866 1.7731
0.036458 -0.044091 1.7743
0.0365 -0.062568 1.7777
0.036524 -0.088026 1.7773
0.036533 -0.10641 1.7781
0.036513 -0.13176 1.7764
0.0365 -0.15018 1.7759
0.036523 -0.1755 1.7756
0.036525 -0.19406 1.7752
0.036577 -0.21983 1.7763
0.036743 -0.23903 1.7823
0.03673 -0.26475 1.7844
0.036907 -0.28413 1.7911
0.036923 -0.31019 1.7904
0.037107 -0.32977 1.7975
0.037152 -0.35631 1.8
0.037322 -0.37567 1.8053
0.037412 -0.40326 1.8099
0.037595 -0.42376 1.8173
0.037752 -0.45088 1.8208
0.037841 -0.47123 1.8271
0.038044 -0.49859 1.8308
0.038144 -0.51963 1.8343
0.038334 -0.54653 1.8414
0.038339 -0.56651 1.8454
0.038449 -0.59393 1.8514
0.03867 -0.61535 1.8551
0.038632 -0.64502 1.8548
0.038746 -0.6631 1.859
0.038789 -0.68948 1.8599
0.038835 -0.70878 1.8586
0.038902 -0.73563 1.8538
0.0049667 0.21916 0.56979
0.0049571 0.20979 0.56924
0.004938 0.2034 0.56641
0.004947 0.19619 0.56953
0.0049248 0.1902 0.56959
0.0049665 0.18304 0.57191
0.0049304 0.17723 0.57116
0.0049703 0.17005 0.57518
0.0049602 0.16426 0.57578
0.0049915 0.15704 0.5797
0.0049971 0.15145 0.58165
0.0050083 0.14416 0.58479
0.0050135 0.13797 0.58572
0.0050327 0.13092 0.58843
0.0050513 0.12504 0.59293
0.0050736 0.11711 0.59642
0.0051157 0.11196 0.60006
0.0051485 0.10441 0.60456
0.0051667 0.098881 0.60927
0.0052238 0.090878 0.61394
0.0052854 0.085455 0.6244
0.0053065 0.077045 0.62864
0.0054146 0.071697 0.63884
0.0054587 0.063915 0.64759
0.0056743 0.059238 0.66994
0.0058963 0.051803 0.70661
0.0098007 0.07377 1.1612
0.014799 0.086359 1.7558
0.01485 0.068343 1.7637
0.014895 0.043306 1.7667
0.014921 0.02504 1.7706
0.014937 -0.00028781 1.7723
0.014949 -0.018694 1.7745
0.014987 -0.044162 1.7785
0.014991 -0.062611 1.7795
0.015002 -0.088082 1.7784
0.015002 -0.1065 1.7778
0.014995 -0.1318 1.7775
0.015007 -0.1502 1.7769
0.015011 -0.1758 1.7769
0.015025 -0.19425 1.7763
0.015046 -0.21994 1.7791
0.015125 -0.23942 1.7826
0.015158 -0.26497 1.7877
0.015213 -0.28416 1.7914
0.015224 -0.31047 1.7928
0.01532 -0.32988 1.7995
0.015379 -0.35696 1.8008
0.015422 -0.37619 1.8114
0.015516 -0.40341 1.8106
0.015581 -0.42441 1.8206
0.015649 -0.45093 1.8221
0.015721 -0.47128 1.8286
0.0158 -0.49944 1.8319
0.015897 -0.52001 1.8365
0.015952 -0.54699 1.8493
0.016047 -0.56801 1.8466
0.016055 -0.5965 1.8518
0.016179 -0.61786 1.8591
0.016218 -0.64509 1.8616
0.016282 -0.66485 1.8641
0.016298 -0.69119 1.8616
0.016387 -0.71115 1.8632
0.0164 -0.73453 1.8619
-0.0019018 0.21905 0.57002
-0.0019157 0.21013 0.56926
-0.0019226 0.20391 0.5687
-0.0019414 0.19664 0.56955
-0.001941 0.19068 0.57059
-0.0019776 0.18332 0.57204
-0.0019763 0.17788 0.57304
-0.0020087 0.17049 0.576
-0.002022 0.16494 0.57805
-0.0020409 0.15739 0.58125
-0.0020561 0.15177 0.58319
-0.0020762 0.14421 0.58573
-0.002087 0.13848 0.58663
-0.0021112 0.13108 0.5919
-0.0021269 0.12524 0.59316
-0.0021553 0.11786 0.60049
-0.0021726 0.11277 0.6027
-0.0021927 0.10447 0.60725
-0.002214 0.099068 0.6115
-0.0022477 0.091395 0.61917
-0.0022738 0.085539 0.62701
-0.0023035 0.077717 0.63146
-0.0023451 0.072378 0.64618
-0.0024115 0.064491 0.65614
-0.0025094 0.06064 0.68286
-0.0027091 0.054321 0.73643
-0.0059869 0.10343 1.6296
-0.0064728 0.086443 1.7605
-0.0065009 0.068448 1.7654
-0.0065219 0.043368 1.7703
-0.0065346 0.025072 1.7737
-0.006539 -0.00028805 1.7757
-0.0065556 -0.018694 1.7789
-0.0065602 -0.044212 1.7812
-0.006557 -0.062682 1.7811
-0.0065457 -0.088123 1.7795
-0.0065451 -0.1065 1.7786
-0.0065239 -0.13184 1.7774
-0.0065213 -0.15028 1.7769
-0.0065146 -0.17596 1.7776
-0.0065069 -0.19434 1.7796
-0.0065003 -0.22009 1.7807
-0.0065112 -0.23945 1.7827
-0.0064978 -0.26541 1.789
-0.0065014 -0.28416 1.7936
-0.0064955 -0.31075 1.7929
-0.006495 -0.33009 1.7994
-0.0064978 -0.35698 1.8045
-0.0064993 -0.3767 1.8118
-0.0064918 -0.40411 1.8142
-0.0064849 -0.42479 1.8213
-0.0064699 -0.45092 1.8251
-0.0064847 -0.47184 1.8344
-0.0064565 -0.50031 1.8376
-0.0064691 -0.52135 1.8426
-0.0064466 -0.54874 1.8498
-0.0064406 -0.56978 1.8523
-0.0064129 -0.5971 1.8563
-0.006399 -0.61837 1.8629
-0.0063559 -0.64564 1.8642
-0.0063324 -0.66577 1.8696
-0.0062984 -0.69325 1.8677
-0.0062582 -0.71128 1.8651
-0.0061885 -0.73974 1.867
-0.0089244 0.22036 0.57495
-0.0088494 0.21177 0.57276
-0.0088548 0.20456 0.5711
-0.0088793 0.19706 0.57285
-0.0089074 0.191 0.57078
-0.008962 0.1836 0.57319
-0.0089674 0.178 0.57357
-0.0090389 0.17062 0.57812
-0.0090551 0.16552 0.57906
-0.0091126 0.15828 0.58346
-0.0091385 0.15219 0.58368
-0.009204 0.14476 0.58801
-0.0092329 0.13924 0.5894
-0.0092867 0.13158 0.5963
-0.0093378 0.12594 0.59783
-0.0094484 0.11864 0.6015
-0.0095019 0.11282 0.60542
-0.0095905 0.10552 0.61041
-0.0097037 0.099836 0.61526
-0.0097691 0.091743 0.62038
-0.0098732 0.086408 0.62834
-0.010005 0.078347 0.63492
-0.010226 0.073198 0.64951
-0.010487 0.065545 0.66437
-0.011173 0.062617 0.70623
-0.013389 0.062738 0.84783
-0.027733 0.11135 1.7535
-0.027865 0.086786 1.7644
-0.027918 0.068637 1.7683
-0.028011 0.043415 1.7731
-0.028083 0.025118 1.7753
-0.028091 -0.00028923 1.7789
-0.028133 -0.018737 1.7814
-0.028148 -0.044288 1.781
-0.028163 -0.062771 1.7817
-0.028142 -0.088185 1.7806
-0.028126 -0.10659 1.7795
-0.028075 -0.132 1.7781
-0.028087 -0.15049 1.7802
-0.028079 -0.17599 1.7784
-0.028121 -0.19459 1.7814
-0.028143 -0.22018 1.7821
-0.028186 -0.23992 1.7872
-0.028199 -0.26569 1.7909
-0.028239 -0.28519 1.7938
-0.02826 -0.31152 1.7995
-0.028322 -0.33056 1.8035
-0.028413 -0.35768 1.8073
-0.028463 -0.3775 1.8151
-0.028531 -0.4043 1.8186
-0.028606 -0.42518 1.8225
-0.028672 -0.45232 1.8288
-0.028802 -0.47318 1.8376
-0.028782 -0.50168 1.8381
-0.028866 -0.52227 1.8469
-0.028919 -0.54917 1.8539
-0.028994 -0.57088 1.8619
-0.029013 -0.59845 1.8601
-0.029058 -0.61914 1.8673
-0.029005 -0.64744 1.8671
-0.029045 -0.66653 1.8696
-0.029029 -0.694 1.8705
-0.028938 -0.71343 1.8726
-0.028905 -0.74105 1.8675
-0.016009 0.22178 0.57846
-0.015903 0.21233 0.57642
-0.015809 0.20647 0.57454
-0.015892 0.19812 0.57667
-0.015891 0.1917 0.57286
-0.015972 0.18434 0.57479
-0.016017 0.1783 0.5757
-0.016106 0.17201 0.57983
-0.016108 0.16646 0.58118
-0.016231 0.15834 0.58418
-0.016306 0.15259 0.58588
-0.016401 0.14535 0.59184
-0.016447 0.13965 0.59362
-0.016573 0.13246 0.59824
-0.016673 0.12684 0.59952
-0.016785 0.11893 0.60411
-0.01694 0.11325 0.60675
-0.017128 0.10573 0.61523
-0.017231 0.10019 0.61889
-0.01741 0.0926 0.62727
-0.017639 0.087141 0.63007
-0.017871 0.079254 0.64278
-0.018463 0.074737 0.66215
-0.018733 0.065934 0.67427
-0.020752 0.065653 0.74344
-0.037685 0.099822 1.352
-0.049171 0.11173 1.7625
-0.049325 0.08689 1.7689
-0.04947 0.068809 1.7735
-0.049584 0.043528 1.7763
-0.04964 0.02514 1.7784
-0.04969 -0.00029205 1.7811
-0.049767 -0.018774 1.7821
-0.049792 -0.044336 1.7846
-0.049806 -0.062821 1.7859
-0.049734 -0.088316 1.7829
-0.049703 -0.10671 1.7829
-0.049651 -0.1321 1.7812
-0.049671 -0.15064 1.7802
-0.049709 -0.17605 1.7825
-0.049708 -0.19491 1.7841
-0.049801 -0.22089 1.7832
-0.049985 -0.24032 1.7929
-0.050013 -0.2662 1.7957
-0.050065 -0.28553 1.7965
-0.050154 -0.31183 1.802
-0.050331 -0.33159 1.8064
-0.050389 -0.35847 1.8076
-0.050557 -0.37838 1.8168
-0.050632 -0.40495 1.8194
-0.050797 -0.42564 1.8321
-0.050978 -0.4528 1.8335
-0.051141 -0.47316 1.842
-0.051215 -0.50179 1.8408
-0.051444 -0.52321 1.8537
-0.051512 -0.55167 1.8547
-0.05156 -0.57191 1.8633
-0.051595 -0.59858 1.8647
-0.05174 -0.62164 1.8718
-0.051877 -0.64785 1.8697
-0.051824 -0.66989 1.8767
-0.051768 -0.69548 1.8771
-0.051764 -0.71491 1.8758
-0.051659 -0.74056 1.8776
-0.02309 0.22315 0.58337
-0.023086 0.21446 0.58098
-0.022898 0.20699 0.57813
-0.023011 0.19966 0.58003
-0.022933 0.19373 0.57827
-0.023045 0.18657 0.57915
-0.023117 0.17965 0.57932
-0.023228 0.17225 0.58316
-0.023271 0.1665 0.58338
-0.023407 0.15893 0.58775
-0.023529 0.15326 0.58961
-0.023634 0.14608 0.59348
-0.023697 0.14048 0.59564
-0.023997 0.13281 0.59958
-0.024131 0.12738 0.60302
-0.024273 0.11997 0.6075
-0.024499 0.11415 0.61346
-0.024668 0.10636 0.6176
-0.024906 0.10122 0.62308
-0.025252 0.093063 0.62908
-0.025571 0.087843 0.63808
-0.026002 0.079978 0.65327
-0.026713 0.07532 0.66987
-0.028142 0.069541 0.70338
-0.041477 0.090889 1.0348
-0.069681 0.12848 1.7457
-0.070677 0.1121 1.7677
-0.070867 0.087139 1.7726
-0.071018 0.068883 1.7765
-0.071079 0.043544 1.7777
-0.071314 0.025192 1.7821
-0.071337 -0.00029617 1.7842
-0.071425 -0.018812 1.7869
-0.071451 -0.044372 1.788
-0.071486 -0.062875 1.7886
-0.07138 -0.088343 1.7854
-0.071307 -0.10678 1.783
-0.071235 -0.13219 1.7812
-0.07131 -0.15069 1.7824
-0.071343 -0.17617 1.7823
-0.071368 -0.19519 1.7841
-0.07147 -0.22081 1.7884
-0.071728 -0.24073 1.7942
-0.071895 -0.26615 1.7959
-0.072042 -0.2861 1.8028
-0.072175 -0.31254 1.8044
-0.072323 -0.33165 1.8057
-0.072476 -0.35834 1.8128
-0.072753 -0.37838 1.8221
-0.07277 -0.40536 1.8235
-0.073053 -0.426 1.8314
-0.073251 -0.45425 1.8339
-0.073488 -0.47602 1.8417
-0.073732 -0.50225 1.8437
-0.074018 -0.5241 1.8558
-0.074019 -0.55288 1.8551
-0.07427 -0.57283 1.8678
-0.07425 -0.6 1.8695
-0.074724 -0.62203 1.8748
-0.074599 -0.64883 1.8724
-0.074713 -0.67089 1.8804
-0.074637 -0.69696 1.8777
-0.074622 -0.71518 1.8776
-0.074404 -0.74199 1.873
-0.030487 0.22552 0.5872
-0.030181 0.21575 0.58365
-0.030223 0.20915 0.58334
-0.030095 0.20014 0.58326
-0.030111 0.19456 0.58157
-0.030304 0.18705 0.58402
-0.030255 0.18099 0.58393
-0.030414 0.17334 0.58677
-0.030508 0.16736 0.58833
-0.030633 0.15963 0.59055
-0.030716 0.15393 0.59201
-0.030988 0.14622 0.59602
-0.031216 0.14087 0.59978
-0.031374 0.13395 0.60312
-0.031583 0.1284 0.60548
-0.031969 0.12073 0.61245
-0.032123 0.11493 0.61599
-0.032383 0.1075 0.62449
-0.032702 0.10178 0.62738
-0.033293 0.094262 0.64008
-0.033788 0.089041 0.6502
-0.034521 0.081875 0.6674
-0.036031 0.078456 0.69691
-0.041453 0.078222 0.79402
-0.087039 0.14702 1.6692
-0.092025 0.13046 1.7698
-0.09229 0.11237 1.7717
-0.092404 0.087231 1.7751
-0.092626 0.068963 1.7796
-0.092921 0.043626 1.7814
-0.092958 0.025225 1.7839
-0.093036 -0.00030097 1.7873
-0.0932 -0.018817 1.7877
-0.093206 -0.044381 1.7896
-0.093296 -0.062949 1.7899
-0.093124 -0.088476 1.788
-0.09301 -0.1069 1.7857
-0.09292 -0.13224 1.7829
-0.093013 -0.15076 1.7837
-0.093026 -0.17662 1.7834
-0.093081 -0.19519 1.7868
-0.093183 -0.22083 1.788
-0.093524 -0.24062 1.7983
-0.093808 -0.26665 1.7986
-0.094031 -0.28621 1.8057
-0.094112 -0.31302 1.8071
-0.094507 -0.33285 1.8142
-0.094617 -0.35956 1.8168
-0.094984 -0.37996 1.8256
-0.095188 -0.40668 1.8294
-0.095499 -0.4264 1.8305
-0.095588 -0.45438 1.8381
-0.096146 -0.47592 1.8446
-0.09625 -0.50337 1.8505
-0.096696 -0.52525 1.8611
-0.096568 -0.5527 1.8619
-0.097217 -0.57434 1.8704
-0.097416 -0.602 1.8729
-0.097554 -0.62275 1.8745
-0.097636 -0.65048 1.8792
-0.097643 -0.67176 1.8835
-0.097618 -0.69714 1.8788
-0.097433 -0.71813 1.8812
-0.097331 -0.74311 1.8756
-0.037662 0.22628 0.58763
-0.037784 0.21801 0.5896
-0.037346 0.21003 0.58522
-0.037528 0.20258 0.58802
-0.037627 0.19638 0.58986
-0.037533 0.18879 0.5906
-0.037582 0.18149 0.58937
-0.037744 0.17381 0.59082
-0.037813 0.16812 0.59244
-0.03797 0.16095 0.59462
-0.038144 0.15458 0.59704
-0.038359 0.14791 0.59907
-0.038651 0.1425 0.60449
-0.038964 0.13505 0.61074
-0.039272 0.12956 0.61204
-0.039648 0.12119 0.61793
-0.039871 0.11625 0.62215
-0.04046 0.10845 0.62606
-0.041029 0.1032 0.63952
-0.041579 0.095762 0.65034
-0.042428 0.091049 0.66443
-0.044313 0.085258 0.6907
-0.049378 0.08715 0.77336
-0.085235 0.13076 1.3266
-0.11334 0.15542 1.7672
-0.11407 0.13087 1.7753
-0.11423 0.11264 1.7768
-0.11434 0.087454 1.779
-0.11441 0.069088 1.78
-0.1146 0.043658 1.783
-0.11476 0.025245 1.7868
-0.11489 -0.00030677 1.7895
-0.11504 -0.018831 1.7896
-0.11509 -0.044407 1.7906
-0.11498 -0.06302 1.792
-0.11488 -0.08859 1.7909
-0.11479 -0.10687 1.7878
-0.11468 -0.1323 1.7852
-0.11476 -0.15113 1.7845
-0.11475 -0.17669 1.7875
-0.11483 -0.19535 1.7883
-0.11512 -0.22127 1.7942
-0.11556 -0.24087 1.7975
-0.11555 -0.26685 1.8022
-0.11611 -0.28679 1.8051
-0.1162 -0.31302 1.8099
-0.11655 -0.3331 1.8154
-0.11669 -0.36034 1.8227
-0.11729 -0.38069 1.8267
-0.11743 -0.40784 1.8299
-0.11771 -0.42812 1.8399
-0.11828 -0.45536 1.8447
-0.11865 -0.47635 1.8482
-0.11884 -0.50334 1.8534
-0.11925 -0.52554 1.8625
-0.11939 -0.5543 1.866
-0.12009 -0.57498 1.8738
-0.12018 -0.60222 1.8774
-0.12047 -0.62472 1.8773
-0.12079 -0.65214 1.883
-0.12076 -0.67238 1.885
-0.12049 -0.69891 1.8847
-0.12058 -0.71912 1.8823
-0.11989 -0.74548 1.8862
-0.045779 0.23051 0.60257
-0.045214 0.21945 0.59487
-0.045287 0.21293 0.59434
-0.04501 0.20406 0.59326
-0.044972 0.19796 0.59231
-0.045177 0.19031 0.5948
-0.045315 0.18416 0.59408
-0.045341 0.1752 0.59423
-0.045476 0.16875 0.59327
-0.045662 0.16228 0.59865
-0.045788 0.15649 0.60146
-0.046162 0.14873 0.60721
-0.046279 0.14367 0.60923
-0.046678 0.13598 0.61364
-0.047115 0.12996 0.61874
-0.047493 0.12281 0.62282
-0.048152 0.11721 0.6255
-0.048689 0.10987 0.63923
-0.049611 0.10501 0.6515
-0.050308 0.097675 0.66422
-0.052638 0.094893 0.68887
-0.05856 0.094946 0.7718
-0.10047 0.14835 1.3144
-0.13457 0.17361 1.7658
-0.13559 0.15649 1.7799
-0.13589 0.1314 1.783
-0.13602 0.11305 1.7866
-0.13614 0.087684 1.788
-0.13628 0.069256 1.7853
-0.13667 0.04379 1.7861
-0.13672 0.025281 1.7879
-0.13683 -0.00031441 1.7896
-0.13692 -0.018895 1.7908
-0.13702 -0.044575 1.7952
-0.13698 -0.063149 1.7955
-0.13672 -0.088744 1.7936
-0.13664 -0.10726 1.7935
-0.13655 -0.13274 1.7918
-0.13665 -0.15129 1.7904
-0.13647 -0.17684 1.7887
-0.13682 -0.19577 1.7926
-0.13703 -0.22172 1.7944
-0.13725 -0.24107 1.7997
-0.13773 -0.26717 1.8042
-0.1383 -0.2875 1.812
-0.13842 -0.31337 1.8147
-0.13883 -0.33354 1.8165
-0.13897 -0.36109 1.8234
-0.13969 -0.38077 1.8308
-0.13993 -0.40783 1.8338
-0.14059 -0.42909 1.8408
-0.14068 -0.45703 1.846
-0.14124 -0.47726 1.851
-0.1416 -0.50439 1.8595
-0.14213 -0.5264 1.8627
-0.14257 -0.55462 1.8682
-0.14327 -0.57605 1.876
-0.14298 -0.60389 1.8811
-0.14367 -0.62605 1.8896
-0.14367 -0.65403 1.8863
-0.14388 -0.67396 1.8888
-0.14383 -0.69983 1.8871
-0.1434 -0.71941 1.889
-0.14361 -0.74503 1.8814
-0.054079 0.23597 0.61598
-0.053421 0.22334 0.60487
-0.053285 0.21709 0.60534
-0.052747 0.20681 0.5983
-0.052444 0.19947 0.59534
-0.05268 0.19176 0.59783
-0.05283 0.18612 0.5994
-0.053346 0.17671 0.6055
-0.053209 0.171 0.60219
-0.053674 0.16337 0.6084
-0.05356 0.15777 0.6052
-0.054017 0.15034 0.61056
-0.054336 0.14437 0.61199
-0.054639 0.13665 0.61974
-0.05555 0.13293 0.62769
-0.055838 0.12503 0.63431
-0.056389 0.12022 0.64261
-0.057446 0.11171 0.64981
-0.059207 0.10852 0.67177
-0.060895 0.10183 0.6889
-0.070637 0.11009 0.79841
-0.11681 0.16272 1.3207
-0.15594 0.19897 1.7635
-0.15698 0.17483 1.7776
-0.15716 0.15683 1.7797
-0.15765 0.13168 1.7871
-0.15795 0.11337 1.7898
-0.15819 0.087931 1.7923
-0.15837 0.069434 1.7931
-0.15838 0.04384 1.7925
-0.15849 0.025298 1.7925
-0.15875 -0.00032401 1.7927
-0.15899 -0.018946 1.7955
-0.1591 -0.044655 1.7968
-0.15905 -0.063258 1.7963
-0.15876 -0.088802 1.7953
-0.15868 -0.10733 1.7936
-0.15833 -0.13289 1.7919
-0.15844 -0.15151 1.7909
-0.15854 -0.17725 1.7928
-0.15878 -0.19614 1.7956
-0.15879 -0.22242 1.7989
-0.15925 -0.24146 1.8025
-0.15986 -0.26799 1.8089
-0.16037 -0.28754 1.8132
-0.16056 -0.31423 1.8167
-0.161 -0.33431 1.8211
-0.16158 -0.36087 1.8264
-0.16211 -0.3814 1.8374
-0.16224 -0.4078 1.8366
-0.16301 -0.42954 1.8431
-0.1632 -0.45745 1.8487
-0.16389 -0.47825 1.8571
-0.16412 -0.50572 1.8619
-0.16521 -0.52732 1.8663
-0.16518 -0.55558 1.8736
-0.16602 -0.57736 1.8811
-0.16613 -0.60527 1.8807
-0.16695 -0.6256 1.8897
-0.16681 -0.65399 1.8895
-0.16679 -0.67467 1.8915
-0.1666 -0.69985 1.8921
-0.16669 -0.71929 1.8889
-0.16658 -0.74549 1.8842
-0.064049 0.2449 0.63892
-0.062842 0.23125 0.62541
-0.06218 0.22219 0.62036
-0.061351 0.21085 0.61431
-0.061441 0.20501 0.61578
-0.061166 0.19584 0.61341
-0.060929 0.18821 0.60923
-0.061594 0.18119 0.61478
-0.061745 0.17474 0.61329
-0.061986 0.16661 0.61623
-0.061837 0.16066 0.6134
-0.06206 0.15273 0.61987
-0.062822 0.14706 0.62517
-0.063249 0.13915 0.63039
-0.06445 0.13594 0.64271
-0.064699 0.12807 0.65309
-0.066584 0.12404 0.66187
-0.067814 0.11627 0.67342
-0.072265 0.11662 0.71874
-0.082505 0.12138 0.82088
-0.15089 0.20622 1.5038
-0.17712 0.21684 1.7622
-0.17852 0.20026 1.7774
-0.17886 0.17534 1.7811
-0.17943 0.15714 1.7861
-0.17994 0.13191 1.7898
-0.1801 0.11364 1.7917
-0.18024 0.0881 1.7932
-0.18036 0.069544 1.7949
-0.18037 0.043917 1.7957
-0.18051 0.025354 1.7968
-0.18059 -0.00033368 1.797
-0.18077 -0.018964 1.7973
-0.18081 -0.044746 1.7974
-0.18107 -0.063397 1.7982
-0.18097 -0.089093 1.7971
-0.18061 -0.10758 1.7968
-0.18043 -0.13318 1.7951
-0.18029 -0.15171 1.7943
-0.1805 -0.17759 1.7963
-0.18062 -0.19652 1.7984
-0.18099 -0.22263 1.8018
-0.18148 -0.24185 1.8078
-0.18158 -0.26813 1.8136
-0.18265 -0.28833 1.8162
-0.18301 -0.31518 1.8211
-0.18327 -0.33458 1.827
-0.1841 -0.36249 1.8288
-0.18462 -0.38217 1.8355
-0.18448 -0.40973 1.8382
-0.18578 -0.43062 1.8492
-0.18597 -0.4581 1.8516
-0.18702 -0.47869 1.8574
-0.18715 -0.50688 1.866
-0.18783 -0.5276 1.8708
-0.18834 -0.55799 1.8725
-0.18926 -0.5769 1.8828
-0.18912 -0.6055 1.8845
-0.19001 -0.62651 1.8917
-0.18952 -0.65495 1.8951
-0.19001 -0.67436 1.8922
-0.18997 -0.70133 1.8934
-0.19 -0.72165 1.8914
-0.18941 -0.74728 1.8915
-0.07488 0.2569 0.66814
-0.0744 0.24446 0.6612
-0.072891 0.23325 0.65223
-0.071854 0.21993 0.64169
-0.070918 0.21109 0.63182
-0.070365 0.20067 0.62754
-0.070124 0.19351 0.62427
-0.070415 0.18493 0.62671
-0.07062 0.17906 0.62842
-0.070984 0.17072 0.63162
-0.071206 0.16499 0.63549
-0.071696 0.15675 0.63803
-0.072776 0.15225 0.64731
-0.07305 0.14408 0.65269
-0.074645 0.14009 0.66175
-0.075741 0.13265 0.67216
-0.079515 0.13171 0.7067
-0.082624 0.12667 0.73461
-0.11842 0.1688 1.0479
-0.17469 0.22958 1.5533
-0.19929 0.24312 1.7697
-0.20007 0.21879 1.7805
-0.20037 0.20094 1.7836
-0.20102 0.17579 1.7886
-0.20156 0.15757 1.7905
-0.20218 0.13215 1.7926
-0.20233 0.11374 1.7958
-0.20245 0.088209 1.7971
-0.20243 0.069649 1.7979
-0.20226 0.043969 1.7987
-0.20231 0.025364 1.8004
-0.20254 -0.00034487 1.8013
-0.20298 -0.019004 1.8034
-0.20307 -0.044805 1.803
-0.20321 -0.063528 1.8027
-0.20309 -0.089269 1.8016
-0.20261 -0.10789 1.8027
-0.20242 -0.13349 1.7978
-0.2025 -0.15202 1.7995
-0.20257 -0.17783 1.7995
-0.20295 -0.1969 1.7999
-0.20314 -0.22277 1.8042
-0.20347 -0.24235 1.8076
-0.20415 -0.26863 1.8142
-0.20522 -0.2885 1.8217
-0.20543 -0.31515 1.8231
-0.20591 -0.33634 1.8279
-0.20626 -0.36317 1.832
-0.20706 -0.38255 1.8371
-0.20763 -0.40947 1.8447
-0.20822 -0.43149 1.8498
-0.20882 -0.45974 1.8556
-0.20968 -0.48116 1.861
-0.21017 -0.50805 1.8686
-0.21112 -0.52866 1.8748
-0.2114 -0.55748 1.881
-0.21241 -0.5801 1.8877
-0.21191 -0.60644 1.8856
-0.213 -0.62926 1.8912
-0.21275 -0.65565 1.8936
-0.21315 -0.6755 1.899
-0.21338 -0.70353 1.8944
-0.21301 -0.72363 1.8948
-0.21293 -0.74868 1.8881
-0.11682 0.35798 0.94928
-0.087547 0.26166 0.7055
-0.082775 0.23984 0.66481
-0.08288 0.22953 0.66546
-0.082324 0.22225 0.66236
-0.082218 0.21165 0.66511
-0.082422 0.20506 0.66335
-0.081789 0.19325 0.6525
-0.081019 0.18562 0.65186
-0.08188 0.17829 0.65665
-0.082099 0.17104 0.65897
-0.082607 0.16347 0.66178
-0.084046 0.15845 0.67681
-0.085268 0.15152 0.68778
-0.08876 0.15019 0.70955
-0.092268 0.14588 0.73968
-0.12641 0.18893 1.012
-0.17286 0.23891 1.3842
-0.21851 0.28393 1.7591
-0.22131 0.26177 1.7764
-0.22204 0.24452 1.781
-0.22265 0.2197 1.7851
-0.22315 0.20147 1.7911
-0.2235 0.17648 1.7937
-0.22371 0.15807 1.7968
-0.22399 0.13243 1.7955
-0.22416 0.11393 1.7987
-0.22431 0.088314 1.8001
-0.22446 0.069721 1.8009
-0.22454 0.04402 1.8018
-0.22443 0.025387 1.8023
-0.22461 -0.00035736 1.8026
-0.22496 -0.019055 1.8036
-0.22511 -0.044915 1.8072
-0.22532 -0.063681 1.8068
-0.2252 -0.089503 1.8058
-0.22548 -0.10817 1.8052
-0.2247 -0.13374 1.8031
-0.22513 -0.15231 1.8016
-0.22505 -0.17831 1.8018
-0.22501 -0.19699 1.8046
-0.22531 -0.22343 1.8074
-0.22594 -0.24265 1.8137
-0.22656 -0.26922 1.8182
-0.22733 -0.28911 1.8215
-0.22804 -0.31641 1.8286
-0.22835 -0.3362 1.8336
-0.22922 -0.36338 1.8375
-0.23032 -0.3836 1.8455
-0.23069 -0.41082 1.8486
-0.23142 -0.43212 1.8543
-0.23187 -0.45924 1.8624
-0.23267 -0.48072 1.8679
-0.2328 -0.50761 1.8672
-0.23416 -0.5302 1.8799
-0.2349 -0.55929 1.8814
-0.23533 -0.57981 1.8859
-0.23551 -0.6079 1.8894
-0.23638 -0.62997 1.8987
-0.23622 -0.65705 1.8964
-0.2363 -0.67752 1.9002
-0.23615 -0.70537 1.8981
-0.23629 -0.72354 1.8951
-0.2354 -0.74791 1.8984
-0.26686 0.74467 1.9428
-0.24974 0.68311 1.8422
-0.16605 0.43678 1.218
-0.12136 0.30322 0.89208
-0.098248 0.23996 0.72297
-0.094304 0.22096 0.69291
-0.093537 0.21162 0.68063
-0.092779 0.20013 0.68072
-0.093045 0.19366 0.68257
-0.098263 0.19452 0.71519
-0.098856 0.18864 0.71862
-0.10015 0.17949 0.72857
-0.10623 0.18388 0.77926
-0.11596 0.18797 0.84775
-0.15806 0.24462 1.1547
-0.19931 0.28697 1.4623
-0.23898 0.32648 1.7523
-0.24218 0.30571 1.7766
-0.24344 0.28842 1.7818
-0.24399 0.26374 1.786
-0.24436 0.24545 1.7882
-0.24486 0.22032 1.7918
-0.24517 0.20198 1.7942
-0.24532 0.17663 1.7968
-0.24557 0.15825 1.7985
-0.24611 0.13275 1.8018
-0.2463 0.11417 1.8031
-0.24651 0.088619 1.8031
-0.24659 0.069878 1.8031
-0.24665 0.044188 1.8039
-0.24671 0.025457 1.8054
-0.24696 -0.00037141 1.8075
-0.24696 -0.019082 1.8086
-0.24691 -0.044923 1.8092
-0.24752 -0.063729 1.8089
-0.24739 -0.089729 1.8105
-0.24751 -0.10844 1.812
-0.24735 -0.13411 1.8078
-0.24721 -0.15272 1.8083
-0.24729 -0.17883 1.806
-0.24769 -0.19755 1.8089
-0.24765 -0.22374 1.8117
-0.2484 -0.24331 1.8158
-0.24904 -0.26969 1.8208
-0.24988 -0.29005 1.8269
-0.25032 -0.31721 1.8303
-0.25129 -0.3366 1.8361
-0.25187 -0.36429 1.8416
-0.25272 -0.38399 1.8466
-0.25314 -0.41169 1.8494
-0.25427 -0.4332 1.8585
-0.25452 -0.46069 1.8624
-0.25578 -0.48114 1.8663
-0.25629 -0.50942 1.8741
-0.25755 -0.53207 1.8849
-0.25741 -0.55984 1.8881
-0.25835 -0.58066 1.894
-0.25929 -0.6083 1.8911
-0.25991 -0.62976 1.9007
-0.25962 -0.65789 1.9028
-0.25977 -0.67935 1.8996
-0.25975 -0.70519 1.899
-0.2592 -0.72461 1.9022
-0.25885 -0.75014 1.8999
-0.29072 0.74838 1.9596
-0.28276 0.70081 1.9077
-0.28191 0.6826 1.8945
-0.27732 0.64268 1.869
-0.26596 0.60249 1.8031
-0.23721 0.51429 1.6087
-0.20327 0.42327 1.3654
-0.18769 0.37665 1.2723
-0.18344 0.35102 1.2354
-0.18413 0.33466 1.2398
-0.20505 0.35846 1.3769
-0.22197 0.36863 1.4905
-0.24851 0.39317 1.6738
-0.26054 0.38839 1.753
-0.26341 0.37482 1.7798
-0.26475 0.35045 1.7847
-0.26469 0.33247 1.783
-0.26578 0.30763 1.7872
-0.26558 0.28959 1.7892
-0.2665 0.26467 1.7913
-0.26689 0.24642 1.7921
-0.2674 0.22086 1.7953
-0.26753 0.20248 1.796
-0.26786 0.1771 1.7987
-0.268 0.15865 1.8028
-0.26846 0.13305 1.8049
-0.26854 0.11419 1.8058
-0.26905 0.088522 1.8059
-0.26905 0.069937 1.808
-0.26919 0.044212 1.8075
-0.26926 0.02545 1.8058
-0.2692 -0.00038653 1.806
-0.2692 -0.019145 1.8092
-0.26965 -0.045103 1.8145
-0.2699 -0.063928 1.8143
-0.26999 -0.089837 1.8129
-0.26988 -0.10861 1.8122
-0.26966 -0.13449 1.811
-0.26985 -0.15323 1.8096
-0.26976 -0.17921 1.8078
-0.26953 -0.19808 1.8116
-0.27026 -0.22439 1.8151
-0.27058 -0.24369 1.8175
-0.27152 -0.27041 1.8234
-0.27261 -0.29111 1.8313
-0.27319 -0.31749 1.8355
-0.27435 -0.33762 1.8402
-0.27483 -0.36472 1.8451
-0.27585 -0.3849 1.8502
-0.27593 -0.41263 1.8556
-0.27741 -0.43379 1.8626
-0.27852 -0.4613 1.8665
-0.27939 -0.48244 1.8769
-0.27917 -0.51004 1.8795
-0.28055 -0.53379 1.885
-0.28059 -0.5612 1.8899
-0.28193 -0.58138 1.8915
-0.28211 -0.60979 1.8961
-0.28301 -0.63003 1.9008
-0.28319 -0.6588 1.9012
-0.28351 -0.67974 1.9047
-0.28271 -0.70615 1.9009
-0.28335 -0.72421 1.9031
-0.28254 -0.75079 1.9019
-0.30382 0.72332 1.8959
-0.30456 0.69893 1.8997
-0.30435 0.68145 1.8915
-0.30089 0.64409 1.8748
-0.29823 0.62022 1.8646
-0.29526 0.58848 1.8391
-0.29355 0.56627 1.8269
-0.29211 0.53858 1.8259
-0.29111 0.51644 1.8169
-0.2905 0.48853 1.8092
-0.28925 0.46901 1.811
-0.28917 0.44302 1.7959
-0.28933 0.42375 1.7973
-0.28927 0.39765 1.7994
-0.28927 0.37918 1.8
-0.28846 0.35344 1.7914
-0.28791 0.3339 1.7946
-0.28827 0.30884 1.7939
-0.2885 0.29008 1.7962
-0.2891 0.2653 1.7966
-0.28892 0.24684 1.7977
-0.28947 0.22112 1.7992
-0.28901 0.20274 1.8013
-0.28976 0.17731 1.8039
-0.28975 0.15899 1.8045
-0.2904 0.13333 1.8047
-0.291 0.11467 1.8059
-0.29154 0.088879 1.8093
-0.2914 0.070084 1.8101
-0.29134 0.044255 1.8098
-0.29141 0.025505 1.809
-0.29187 -0.00040288 1.8091
-0.29199 -0.019171 1.8148
-0.29217 -0.0451 1.8152
-0.29209 -0.06403 1.816
-0.29218 -0.090002 1.8153
-0.29244 -0.1088 1.8151
-0.29219 -0.13471 1.8147
-0.29196 -0.15341 1.815
-0.29182 -0.17932 1.8134
-0.29214 -0.19843 1.8148
-0.29299 -0.22472 1.8201
-0.29351 -0.24415 1.822
-0.29433 -0.27142 1.8286
-0.29494 -0.29105 1.8331
-0.29627 -0.3185 1.8371
-0.29698 -0.33835 1.842
-0.29811 -0.36573 1.8471
-0.29844 -0.38606 1.855
-0.29921 -0.41382 1.8606
-0.3004 -0.43398 1.8653
-0.30122 -0.46314 1.8737
-0.30198 -0.48285 1.8769
-0.30305 -0.51211 1.8814
-0.30314 -0.53378 1.8885
-0.30372 -0.56048 1.887
-0.30552 -0.58339 1.8982
-0.30605 -0.61027 1.8988
-0.30669 -0.63202 1.9035
-0.30612 -0.65919 1.9035
-0.30647 -0.67926 1.9065
-0.30697 -0.70566 1.9041
-0.30652 -0.72578 1.9052
-0.30649 -0.75157 1.9021
-0.32251 0.71581 1.8661
-0.32286 0.69237 1.869
-0.32149 0.66661 1.8634
-0.32134 0.63996 1.8627
-0.31955 0.61755 1.8551
-0.3185 0.58848 1.8448
-0.3167 0.56918 1.8391
-0.31608 0.54127 1.8306
-0.31438 0.52012 1.8275
-0.31409 0.49142 1.8201
-0.31257 0.47128 1.8138
-0.31262 0.44538 1.8143
-0.31198 0.42546 1.8037
-0.31223 0.39958 1.8076
-0.31191 0.38082 1.8031
-0.31139 0.35448 1.8015
-0.31044 0.33522 1.8009
-0.31094 0.31019 1.8
-0.31146 0.29121 1.8017
-0.31146 0.26586 1.8022
-0.31159 0.24729 1.803
-0.3124 0.2218 1.8053
-0.31207 0.20333 1.8072
-0.31208 0.17731 1.8065
-0.31235 0.1588 1.8082
-0.31273 0.13329 1.8109
-0.31297 0.11468 1.8124
-0.31357 0.088882 1.8138
-0.31373 0.070253 1.8146
-0.31371 0.044271 1.8149
-0.31378 0.025549 1.8167
-0.31393 -0.00042068 1.8154
-0.31394 -0.019234 1.8171
-0.31457 -0.045202 1.8166
-0.31502 -0.064028 1.8188
-0.31507 -0.090187 1.8195
-0.31491 -0.10901 1.8198
-0.31536 -0.13493 1.8198
-0.31529 -0.15404 1.8198
-0.31515 -0.17996 1.82
-0.31503 -0.19901 1.8195
-0.31516 -0.22511 1.8223
-0.31562 -0.24504 1.8284
-0.31696 -0.27132 1.8318
-0.31802 -0.29159 1.8375
-0.31889 -0.319 1.8417
-0.3196 -0.33894 1.8476
-0.32083 -0.36668 1.854
-0.32174 -0.38702 1.8592
-0.32221 -0.41452 1.8633
-0.32408 -0.43525 1.8685
-0.32485 -0.4636 1.8721
-0.3255 -0.48419 1.8773
-0.32578 -0.51138 1.8789
-0.32687 -0.53302 1.8903
-0.32759 -0.5619 1.8952
-0.32911 -0.5838 1.9019
-0.32859 -0.6112 1.9023
-0.32996 -0.6315 1.9071
-0.33 -0.66035 1.9092
-0.33022 -0.68017 1.9094
-0.32985 -0.7068 1.9078
-0.32988 -0.72645 1.907
-0.32842 -0.75233 1.9035
-0.34318 0.71188 1.8545
-0.34317 0.68594 1.8566
-0.34267 0.66408 1.8569
-0.34192 0.63627 1.8535
-0.34112 0.61634 1.8477
-0.34012 0.58873 1.8414
-0.3382 0.56805 1.8356
-0.33779 0.5403 1.8281
-0.33772 0.51997 1.8266
-0.33665 0.49341 1.8264
-0.33626 0.47248 1.8209
-0.33492 0.44601 1.8162
-0.3346 0.42692 1.8142
-0.3351 0.4015 1.8104
-0.33492 0.38201 1.8092
-0.33398 0.35588 1.812
-0.33321 0.33616 1.8012
-0.33313 0.31026 1.8027
-0.33339 0.29154 1.8042
-0.33401 0.26636 1.8035
-0.33441 0.24802 1.8056
-0.33408 0.22238 1.8063
-0.33405 0.20371 1.8084
-0.33454 0.17791 1.81
-0.33483 0.1593 1.8117
-0.33523 0.13358 1.8131
-0.33557 0.11509 1.8122
-0.33586 0.089192 1.8131
-0.33602 0.070346 1.8138
-0.33658 0.044374 1.8146
-0.33666 0.025554 1.815
-0.33701 -0.00043954 1.8174
-0.33701 -0.019272 1.8168
-0.33695 -0.045327 1.8195
-0.33696 -0.064166 1.8226
-0.33723 -0.090363 1.8235
