# .PCD v0.7 - Point Cloud Data file format
VERSION 0.7
FIELDS x y z
SIZE 4 4 4
TYPE F F F
COUNT 1 1 1
WIDTH 2445
HEIGHT 1
VIEWPOINT 0 0 0 1 0 0 0
POINTS 2445
DATA ascii
0.21298 0.26528 1.2018
0.21184 0.25205 1.1979
0.21132 0.23198 1.1848
0.20903 0.2187 1.1694
0.20698 0.20057 1.1485
0.20103 0.18356 1.1375
0.16015 0.1351 0.91067
0.099586 0.076792 0.55725
0.095252 0.065818 0.53611
0.093697 0.059119 0.52113
0.092193 0.050898 0.51729
0.091422 0.045202 0.51173
0.090456 0.037382 0.50643
0.089899 0.031883 0.50183
0.089226 0.024601 0.4991
0.088876 0.019339 0.49728
0.08865 0.012096 0.49509
0 0 -1
0 0 -1
0 0 -1
0 0 -1
0 0 -1
0 0 -1
0 0 -1
0 0 -1
0 0 -1
0 0 -1
0 0 -1
0 0 -1
0 0 -1
0 0 -1
0 0 -1
0 0 -1
0 0 -1
0 0 -1
0 0 -1
0 0 -1
0 0 -1
0 0 -1
0 0 -1
0 0 -1
0 0 -1
0 0 -1
0 0 -1
0 0 -1
0 0 -1
0 0 -1
0 0 -1
0.086899 -0.18079 0.48492
0.087694 -0.18725 0.49088
0.088964 -0.19752 0.49631
0.19482 0.45132 1.1736
0.19529 0.43306 1.175
0.19431 0.42098 1.1748
0.19676 0.40767 1.1866
0.19854 0.40137 1.1924
0.20022 0.38771 1.2056
0.20098 0.37628 1.2008
0.20103 0.35996 1.2028
0.19947 0.34369 1.1968
0.19684 0.32337 1.1817
0.19465 0.3048 1.1704
0.19529 0.28906 1.1757
0.19823 0.28337 1.1951
0.19908 0.26716 1.2041
0.19863 0.2524 1.2012
0.19731 0.23243 1.1827
0.19365 0.21748 1.1542
0.18928 0.19813 1.1506
0.18358 0.18086 1.1119
0.11618 0.10393 0.70586
0.091327 0.075508 0.5485
0.087516 0.064825 0.52702
0.086596 0.059018 0.51897
0.085676 0.050757 0.51751
0.084886 0.044769 0.50919
0.084379 0.037206 0.50589
0.083291 0.031945 0.5016
0.08299 0.024567 0.49969
0.082975 0.01931 0.49729
0 0 -1
0 0 -1
0 0 -1
0 0 -1
0 0 -1
0 0 -1
0 0 -1
0 0 -1
0 0 -1
0 0 -1
0 0 -1
0 0 -1
0 0 -1
0 0 -1
0 0 -1
0 0 -1
0 0 -1
0 0 -1
0 0 -1
0 0 -1
0 0 -1
0 0 -1
0 0 -1
0 0 -1
0 0 -1
0 0 -1
0 0 -1
0 0 -1
0 0 -1
0 0 -1
0 0 -1
0 0 -1
0.081093 -0.18087 0.48635
0.081361 -0.18678 0.49135
0.082607 -0.19626 0.49463
0.1922 0.47926 1.2507
0.18466 0.44036 1.2012
0.18193 0.42302 1.1808
0.18276 0.41229 1.186
0.18366 0.40205 1.2027
0.18592 0.38903 1.2115
0.18674 0.37732 1.215
0.18735 0.36096 1.2177
0.18686 0.34452 1.2082
0.18412 0.32465 1.1932
0.18217 0.30689 1.1828
0.18277 0.29105 1.1867
0.18352 0.28185 1.1951
0.18485 0.2656 1.1996
0.18274 0.2516 1.1816
0.18091 0.23033 1.1723
0.17823 0.21493 1.15
0.17522 0.19624 1.1337
0.16453 0.17481 1.0754
0.092809 0.089812 0.60871
0.083154 0.074217 0.53562
0.081271 0.064621 0.52558
0.080003 0.058716 0.51855
0.079246 0.050687 0.51405
0.078591 0.044855 0.50989
0.078177 0.037265 0.50658
0.077307 0.031856 0.50178
0.077053 0.0246 0.50007
0 0 -1
0 0 -1
0 0 -1
0 0 -1
0 0 -1
0 0 -1
0 0 -1
0 0 -1
0 0 -1
0 0 -1
0 0 -1
0 0 -1
0 0 -1
0 0 -1
0 0 -1
0 0 -1
0 0 -1
0 0 -1
0 0 -1
0 0 -1
0 0 -1
0 0 -1
0 0 -1
0 0 -1
0 0 -1
0 0 -1
0 0 -1
0 0 -1
0 0 -1
0 0 -1
0 0 -1
0 0 -1
0 0 -1
0 -0.18061 -1
0.075553 -0.18705 0.48883
0.076185 -0.19551 0.49128
0.18233 0.49209 1.2851
0.17714 0.46091 1.2487
0.16792 0.4301 1.1976
0.16507 0.40208 1.1575
0.16875 0.40088 1.1864
0.17016 0.38626 1.2134
0.17145 0.37404 1.2169
0.1721 0.35804 1.2143
0.17073 0.34317 1.1955
0.16821 0.32204 1.1857
0.16679 0.30652 1.1768
0.16734 0.2907 1.1807
0.16764 0.27914 1.1825
0.16814 0.2638 1.1807
0.16612 0.24676 1.1711
0.16416 0.2268 1.1498
0.1613 0.21234 1.1329
0.15661 0.1903 1.102
0.13655 0.15594 0.97117
0.08174 0.08477 0.57376
0.076581 0.074213 0.53655
0.075246 0.064734 0.52629
0.073802 0.05855 0.51689
0.073125 0.050777 0.51494
0.072255 0.044886 0.50927
0.071806 0.037275 0.5049
0.071245 0.031854 0.50119
0.071036 0.024587 0.50002
0 0 -1
0 0 -1
0 0 -1
0 0 -1
0 0 -1
0 0 -1
0 0 -1
0 0 -1
0 0 -1
0 0 -1
0 0 -1
0 0 -1
0 0 -1
0 0 -1
0 0 -1
0 0 -1
0 0 -1
0 0 -1
0 0 -1
0 0 -1
0 0 -1
0 0 -1
0 0 -1
0 0 -1
0 0 -1
0 0 -1
0 0 -1
0 0 -1
0 0 -1
0 0 -1
0 0 -1
0 0 -1
0 0 -1
0 0 -1
0.069717 -0.18709 0.48959
0.070165 -0.1949 0.49131
0.16517 0.48955 1.2737
0.16283 0.46018 1.2457
0.14896 0.41295 1.1529
0.1393 0.36937 1.0811
0.14325 0.37049 1.1056
0.14432 0.35842 1.1126
0.14635 0.34814 1.1299
0.14691 0.33715 1.1343
0.14673 0.32625 1.1345
0.14669 0.30956 1.1246
0.14684 0.29552 1.1305
0.14825 0.28264 1.152
0.14894 0.27159 1.1547
0.14938 0.25593 1.1582
0.14833 0.24282 1.1392
0.14805 0.22465 1.1378
0.14733 0.21171 1.1302
0.14344 0.1906 1.1037
0.10233 0.12788 0.78798
0.074171 0.084092 0.56922
0.069593 0.074331 0.53825
0.068918 0.064959 0.52465
0.067352 0.058643 0.5176
0.066898 0.050644 0.51577
0.066178 0.045023 0.50845
0.065732 0.037165 0.50443
0.065253 0.031856 0.50199
0.064994 0.024569 0.50047
0 0 -1
0 0 -1
0 0 -1
0 0 -1
0 0 -1
0 0 -1
0 0 -1
0 0 -1
0 0 -1
0 0 -1
0 0 -1
0 0 -1
0 0 -1
0 0 -1
0 0 -1
0 0 -1
0 0 -1
0 0 -1
0 0 -1
0 0 -1
0 0 -1
0 0 -1
0 0 -1
0 0 -1
0 0 -1
0 0 -1
0 0 -1
0 0 -1
0 0 -1
0 0 -1
0 0 -1
0 0 -1
0 0 -1
0 0 -1
0.063714 -0.18718 0.48918
0.064412 -0.19533 0.49033
0.15423 0.50442 1.3132
0.14572 0.45951 1.2365
0.12876 0.40288 1.0995
0.12613 0.36892 1.0773
0.12566 0.35813 1.0807
0.11961 0.3263 1.0025
0.11465 0.29987 0.96878
0.11399 0.28272 0.94392
0.11203 0.26939 0.94003
0.10858 0.24942 0.93794
0.10885 0.24051 0.94032
0.13311 0.27891 1.1315
0.13489 0.27178 1.1494
0.13561 0.25629 1.1598
0.13465 0.24316 1.1408
0.1344 0.22496 1.144
0.13407 0.21236 1.1461
0.13021 0.19087 1.1053
0.092896 0.12806 0.78911
0.067275 0.084213 0.57004
0.063174 0.074407 0.53903
0.062276 0.065054 0.52738
0.061159 0.058769 0.51847
0.060514 0.050697 0.51274
0.060028 0.045129 0.5092
0.059454 0.037221 0.50436
0.059213 0.031905 0.50136
0.05888 0.024581 0.50095
0 0 -1
0 0 -1
0 0 -1
0 0 -1
0 0 -1
0 0 -1
0 0 -1
0 0 -1
0 0 -1
0 0 -1
0 0 -1
0 0 -1
0 0 -1
0 0 -1
0 0 -1
0 0 -1
0 0 -1
0 0 -1
0 0 -1
0 0 -1
0 0 -1
0 0 -1
0 0 -1
0 0 -1
0 0 -1
0 0 -1
0 0 -1
0 0 -1
0 0 -1
0 0 -1
0 0 -1
0 0 -1
0 0 -1
0 0 -1
0.057842 -0.18715 0.48964
0.058049 -0.19455 0.49121
0.13744 0.50248 1.3091
0.13806 0.48541 1.3111
0.13129 0.44865 1.2326
0.11613 0.38904 1.1057
0.11285 0.35941 1.082
0.1036 0.31437 0.98637
0.10103 0.29556 0.94138
0.091357 0.25012 0.86664
0.091599 0.24204 0.86902
0.086559 0.22648 0.81989
0.096526 0.2388 0.90789
0.097052 0.22698 0.92636
0.12821 0.28518 1.1975
0.13006 0.27313 1.2372
0.12969 0.2603 1.2344
0.12966 0.24245 1.2301
0.1299 0.23016 1.2286
0.12069 0.19685 1.1566
0.076863 0.11876 0.73193
0.060413 0.084321 0.57079
0.056375 0.074252 0.53831
0.055581 0.065232 0.52807
0.054457 0.058846 0.51882
0.054341 0.050764 0.51342
0.053753 0.045189 0.50987
0.053389 0.037415 0.50503
0.053026 0.031882 0.50203
0.052917 0.024641 0.50162
0 0 -1
0 0 -1
0 0 -1
0 0 -1
0 0 -1
0 0 -1
0 0 -1
0 0 -1
0 0 -1
0 0 -1
0 0 -1
0 0 -1
0 0 -1
0 0 -1
0 0 -1
0 0 -1
0 0 -1
0 0 -1
0 0 -1
0 0 -1
0 0 -1
0 0 -1
0 0 -1
0 0 -1
0 0 -1
0 0 -1
0 0 -1
0 0 -1
0 0 -1
0 0 -1
0 0 -1
0 0 -1
0 0 -1
0 0 -1
0.051951 -0.18756 0.48999
0.05229 -0.19481 0.49358
0.12373 0.5072 1.3277
0.12428 0.49064 1.334
0.12366 0.47388 1.3168
0.12241 0.45436 1.3145
0.12264 0.4339 1.3053
0.10214 0.3559 1.1019
0.089525 0.29746 0.95976
0.080953 0.25039 0.8676
0.081167 0.2423 0.86998
0.076699 0.22672 0.8208
0.083832 0.23755 0.88984
0.085809 0.22723 0.9274
0.1189 0.30218 1.2794
0.11978 0.28533 1.2854
0.11894 0.26897 1.2723
0.11819 0.2508 1.2723
0.11735 0.23511 1.264
0.11537 0.21331 1.237
0.065623 0.11455 0.71234
0.053218 0.084217 0.56974
0.049949 0.074241 0.53894
0.049059 0.065021 0.53029
0.048421 0.058713 0.52098
0.048185 0.050708 0.51512
0.047556 0.044971 0.51075
0.047091 0.03746 0.50397
0.046886 0.031921 0.50262
0.046845 0.024647 0.50194
0 0 -1
0 0 -1
0 0 -1
0 0 -1
0 0 -1
0 0 -1
0 0 -1
0 0 -1
0 0 -1
0 0 -1
0 0 -1
0 0 -1
0 0 -1
0 0 -1
0 0 -1
0 0 -1
0 0 -1
0 0 -1
0 0 -1
0 0 -1
0 0 -1
0 0 -1
0 0 -1
0 0 -1
0 0 -1
0 0 -1
0 0 -1
0 0 -1
0 0 -1
0 0 -1
0 0 -1
0 0 -1
0 0 -1
0 0 -1
0.046135 -0.18739 0.48955
0.046148 -0.19462 0.49349
0.11511 0.54583 1.4109
0.11562 0.52801 1.4175
0.11634 0.51644 1.4233
0.11683 0.49814 1.4297
0.11442 0.47568 1.4137
0.11166 0.4361 1.3553
0.10275 0.39212 1.2538
0.094644 0.34678 1.1726
0.082699 0.29082 1.004
0.075604 0.25473 0.93216
0.075788 0.24564 0.93455
0.080104 0.24092 0.9772
0.1067 0.30928 1.3161
0.10859 0.29445 1.3264
0.10818 0.28057 1.3254
0.10644 0.25682 1.3089
0.10429 0.24023 1.2904
0.10245 0.21787 1.2684
0.057155 0.11466 0.71307
0.04635 0.084302 0.57033
0.043357 0.074413 0.54016
0.042727 0.065158 0.53083
0.042175 0.058773 0.52146
0.042052 0.050912 0.51618
0.041417 0.045018 0.51128
0.041341 0.037499 0.50793
0.041025 0.031955 0.50343
0.040831 0.024655 0.50288
0 0 -1
0 0 -1
0 0 -1
0 0 -1
0 0 -1
0 0 -1
0 0 -1
0 0 -1
0 0 -1
0 0 -1
0 0 -1
0 0 -1
0 0 -1
0 0 -1
0 0 -1
0 0 -1
0 0 -1
0 0 -1
0 0 -1
0 0 -1
0 0 -1
0 0 -1
0 0 -1
0 0 -1
0 0 -1
0 0 -1
0 0 -1
0 0 -1
0 0 -1
0 0 -1
0 0 -1
0 0 -1
0 0 -1
0 0 -1
0.040195 -0.18745 0.49096
0.04038 -0.19512 0.49438
0.099107 0.54801 1.426
0.099542 0.5316 1.436
0.10043 0.52182 1.454
0.10234 0.50956 1.4806
0.10276 0.49711 1.4914
0.10251 0.47766 1.4881
0.10056 0.45207 1.454
0.094091 0.40445 1.3663
0.081698 0.34162 1.188
0.070674 0.27751 1.0086
0.070845 0.26659 1.0111
0.071154 0.25284 1.0325
0.093964 0.32158 1.3478
0.095002 0.30683 1.37
0.094114 0.28896 1.359
0.09236 0.26321 1.3346
0.090796 0.24401 1.3126
0.089006 0.22258 1.2947
0.051947 0.12288 0.76267
0.039619 0.085229 0.57459
0.037165 0.074051 0.54076
0.036555 0.065214 0.53129
0.036036 0.059035 0.52193
0.035814 0.051033 0.51707
0.035291 0.045 0.51256
0.035181 0.037535 0.50839
0.034927 0.031957 0.50485
0.034715 0.024677 0.50181
0.034651 0.019468 0.49958
0 0 -1
0 0 -1
0 0 -1
0 0 -1
0 0 -1
0 0 -1
0 0 -1
0 0 -1
0 0 -1
0 0 -1
0 0 -1
0 0 -1
0 0 -1
0 0 -1
0 0 -1
0 0 -1
0 0 -1
0 0 -1
0 0 -1
0 0 -1
0 0 -1
0 0 -1
0 0 -1
0 0 -1
0 0 -1
0 0 -1
0 0 -1
0 0 -1
0 0 -1
0 0 -1
0 0 -1
0 0 -1
0 0 -1
0.034265 -0.18759 0.49248
0.034509 -0.19633 0.49809
0.081509 0.54639 1.4303
0.082669 0.53535 1.4477
0.084145 0.52861 1.4732
0.084736 0.51333 1.4882
0.085506 0.50052 1.4971
0.085839 0.48032 1.4987
0.084853 0.46392 1.4895
0.083319 0.43324 1.4608
0.077867 0.39164 1.371
0.067666 0.32594 1.1932
0.061542 0.28041 1.0641
0.061736 0.26596 1.0677
0.079942 0.33085 1.4046
0.080174 0.3118 1.4089
0.078947 0.29335 1.3798
0.077868 0.27038 1.3638
0.076337 0.25004 1.3381
0.074181 0.22495 1.3109
0.049054 0.1396 0.86129
0.033294 0.086129 0.58205
0.030665 0.074689 0.54662
0.030276 0.065388 0.53169
0.029809 0.059267 0.52232
0.029548 0.05107 0.51915
0.029202 0.045118 0.51381
0.029057 0.037578 0.51206
0.028826 0.032221 0.50608
0.028586 0.024697 0.50219
0.028549 0.019484 0.50127
0 0 -1
0 0 -1
0 0 -1
0 0 -1
0 0 -1
0 0 -1
0 0 -1
0 0 -1
0 0 -1
0 0 -1
0 0 -1
0 0 -1
0 0 -1
0 0 -1
0 0 -1
0 0 -1
0 0 -1
0 0 -1
0 0 -1
0 0 -1
0 0 -1
0 0 -1
0 0 -1
0 0 -1
0 0 -1
0 0 -1
0 0 -1
0 0 -1
0 0 -1
0 0 -1
0 0 -1
0 0 -1
0 0 -1
0.028295 -0.18803 0.49356
0.028541 -0.19606 0.49567
0.064551 0.54913 1.4361
0.0653 0.53565 1.451
0.066531 0.53219 1.4758
0.066996 0.51515 1.4932
0.067663 0.5027 1.5031
0.067919 0.48254 1.5094
0.067382 0.46644 1.4986
0.066284 0.44023 1.4825
0.06257 0.3956 1.3908
0.054014 0.32848 1.2082
0.04979 0.28816 1.1072
0.049944 0.27331 1.1109
0.063884 0.33627 1.4307
0.064065 0.31691 1.4352
0.06321 0.29806 1.4127
0.062355 0.27238 1.3845
0.060843 0.25395 1.3639
0.059495 0.22942 1.3285
0.044204 0.15927 0.99048
0.026738 0.088687 0.59953
0.024624 0.07576 0.55239
0.024049 0.066063 0.53397
0.023537 0.059301 0.52385
0.02327 0.0511 0.52024
0.023037 0.045407 0.51545
0.022923 0.037772 0.51335
0.022784 0.032342 0.50867
0.022501 0.024788 0.5025
0.02244 0.019506 0.5017
0 0 -1
0 0 -1
0 0 -1
0 0 -1
0 0 -1
0 0 -1
0 0 -1
0 0 -1
0 0 -1
0 0 -1
0 0 -1
0 0 -1
0 0 -1
0 0 -1
0 0 -1
0 0 -1
0 0 -1
0 0 -1
0 0 -1
0 0 -1
0 0 -1
0 0 -1
0 0 -1
0 0 -1
0 0 -1
0 0 -1
0 0 -1
0 0 -1
0 0 -1
0 0 -1
0 0 -1
0 0 -1
0 0 -1
0.022378 -0.18825 0.49418
0.022634 -0.19766 0.49967
0.047581 0.553 1.4344
0.047995 0.53725 1.455
0.048549 0.53283 1.4779
0.048997 0.51684 1.494
0.049668 0.50469 1.509
0.049848 0.48521 1.5154
0.049592 0.46848 1.5062
0.048529 0.4408 1.4917
0.046275 0.40203 1.4033
0.040059 0.33614 1.2311
0.037452 0.29693 1.1563
0.037563 0.28162 1.1602
0.047372 0.34065 1.4449
0.0475 0.32104 1.4494
0.046823 0.30198 1.423
0.045837 0.27609 1.4048
0.045179 0.25683 1.3727
0.043954 0.23211 1.3438
0.037619 0.18662 1.1548
0.020851 0.093707 0.63405
0.018149 0.07614 0.55538
0.017668 0.066131 0.54062
0.017234 0.059511 0.52672
0.017058 0.051456 0.5205
0.016901 0.045447 0.51834
0.016816 0.037986 0.51575
0.016707 0.032358 0.50918
0.016578 0.025022 0.50739
0.016354 0.019496 0.50181
0 0 -1
0 0 -1
0 0 -1
0 0 -1
0 0 -1
0 0 -1
0 0 -1
0 0 -1
0 0 -1
0 0 -1
0 0 -1
0 0 -1
0 0 -1
0 0 -1
0 0 -1
0 0 -1
0 0 -1
0 0 -1
0 0 -1
0 0 -1
0 0 -1
0 0 -1
0 0 -1
0 0 -1
0 0 -1
0 0 -1
0 0 -1
0 0 -1
0 0 -1
0 0 -1
0 0 -1
0 0 -1
0.016313 -0.18275 0.49207
0.016397 -0.18926 0.49515
0.016554 -0.19844 0.50035
0.029976 0.54925 1.438
0.030369 0.53759 1.456
0.030851 0.53377 1.4862
0.031079 0.51789 1.4981
0.031478 0.50701 1.5155
0.03158 0.48744 1.5219
0.031457 0.46948 1.515
0.031058 0.44408 1.4981
0.029345 0.40556 1.4201
0.026062 0.34488 1.2613
0.024106 0.30506 1.1739
0.02417 0.28933 1.1779
0.03013 0.34286 1.459
0.030204 0.32312 1.4635
0.029603 0.30308 1.4377
0.029263 0.27846 1.4153
0.028685 0.25911 1.3902
0.028041 0.2354 1.3531
0.026473 0.20977 1.2807
0.013668 0.097584 0.65969
0.011513 0.076543 0.55815
0.011158 0.066638 0.54124
0.01088 0.059687 0.52937
0.010828 0.051742 0.52537
0.010722 0.045863 0.51978
0.010592 0.037996 0.51592
0.010514 0.032368 0.50958
0.01047 0.02503 0.5084
0.010304 0.019539 0.50209
0 0 -1
0 0 -1
0 0 -1
0 0 -1
0 0 -1
0 0 -1
0 0 -1
0 0 -1
0 0 -1
0 0 -1
0 0 -1
0 0 -1
0 0 -1
0 0 -1
0 0 -1
0 0 -1
0 0 -1
0 0 -1
0 0 -1
0 0 -1
0 0 -1
0 0 -1
0 0 -1
0 0 -1
0 0 -1
0 0 -1
0 0 -1
0 0 -1
0 0 -1
0 0 -1
0 0 -1
0 0 -1
0.010326 -0.18373 0.49497
0.010431 -0.18951 0.49899
0.010525 -0.19951 0.50252
0.012601 0.54869 1.4338
0.012678 0.53743 1.4562
0.012921 0.53383 1.4829
0.013027 0.51794 1.5005
0.01318 0.50708 1.5166
0.013203 0.48812 1.5283
0.013174 0.47024 1.5213
0.012996 0.44646 1.4997
0.012416 0.41309 1.4416
0.011115 0.34845 1.2997
0.010204 0.30807 1.1769
0.010219 0.29219 1.1809
0.012501 0.34467 1.462
0.012519 0.32482 1.4666
0.012302 0.30521 1.4462
0.012128 0.28019 1.4159
0.011858 0.26159 1.3935
0.01164 0.23652 1.3717
0.011247 0.2148 1.3265
0.0068343 0.11835 0.80329
0.0048194 0.078002 0.56849
0.0045997 0.068024 0.54875
0.0045045 0.060131 0.53234
0.00445 0.051903 0.52588
0.0044106 0.045869 0.52046
0.004364 0.038016 0.5163
0.0043112 0.032431 0.5118
0.0043021 0.025033 0.50849
0.0042732 0.019663 0.50487
0 0 -1
0 0 -1
0 0 -1
0 0 -1
0 0 -1
0 0 -1
0 0 -1
0 0 -1
0 0 -1
0 0 -1
0 0 -1
0 0 -1
0 0 -1
0 0 -1
0 0 -1
0 0 -1
0 0 -1
0 0 -1
0 0 -1
0 0 -1
0 0 -1
0 0 -1
0 0 -1
0 0 -1
0 0 -1
0 0 -1
0 0 -1
0 0 -1
0 0 -1
0 0 -1
0 0 -1
0.0043189 -0.1768 0.4948
0.0043477 -0.18393 0.49608
0.0044016 -0.19039 0.50045
0.0044544 -0.20022 0.50411
-0.0047877 0.55104 1.4354
-0.0048791 0.53764 1.4563
-0.0050266 0.53393 1.4865
-0.0051125 0.51793 1.5059
-0.005211 0.50707 1.5241
-0.0052674 0.49038 1.5308
-0.0052805 0.47316 1.5329
-0.0052605 0.44749 1.5141
-0.0051018 0.41852 1.4614
-0.0047014 0.36376 1.3297
-0.0042269 0.31258 1.1915
-0.0042618 0.29646 1.1956
-0.0052217 0.34634 1.4675
-0.0052607 0.3264 1.4721
-0.0051765 0.30569 1.4522
-0.0051285 0.28232 1.4291
-0.0050638 0.26394 1.4033
-0.004996 0.23756 1.3825
-0.0048076 0.2175 1.3427
-0.0041785 0.17099 1.1568
-0.0021525 0.081374 0.59011
-0.0020214 0.068028 0.55557
-0.0019493 0.060535 0.53634
-0.0019372 0.052107 0.52678
-0.001914 0.045868 0.52228
-0.0018988 0.038317 0.51631
-0.0018816 0.032539 0.51245
-0.0018779 0.02509 0.51101
-0.0018699 0.019709 0.50604
-0.001856 0.012318 0.50113
0 0 -1
0 0 -1
0 0 -1
0 0 -1
0 0 -1
0 0 -1
0 0 -1
0 0 -1
0 0 -1
0 0 -1
0 0 -1
0 0 -1
0 0 -1
0 0 -1
0 0 -1
0 0 -1
0 0 -1
0 0 -1
0 0 -1
0 0 -1
0 0 -1
0 0 -1
0 0 -1
0 0 -1
0 0 -1
0 0 -1
0 0 -1
0 0 -1
0 0 -1
0 0 -1
-0.0016852 -0.17697 0.4965
-0.0016789 -0.1844 0.49746
-0.0016937 -0.1921 0.50296
-0.0016965 -0.20123 0.50927
-0.022154 0.55093 1.4351
-0.022395 0.53825 1.4556
-0.023011 0.53345 1.4877
-0.023287 0.51729 1.5058
-0.023651 0.51012 1.5244
-0.02386 0.49069 1.5382
-0.023871 0.47601 1.5349
-0.023877 0.45191 1.5271
-0.023146 0.42245 1.4887
-0.021363 0.37083 1.3684
-0.018993 0.31648 1.2186
-0.01908 0.30016 1.2228
-0.023246 0.35058 1.4858
-0.023342 0.33039 1.4904
-0.022862 0.30787 1.4599
-0.022591 0.28492 1.4385
-0.022339 0.26571 1.4198
-0.021901 0.23969 1.3834
-0.021228 0.21947 1.3538
-0.020465 0.19342 1.3087
-0.0094472 0.082825 0.59892
-0.0088432 0.068898 0.55938
-0.0084818 0.060884 0.53902
-0.008404 0.052097 0.53292
-0.0082342 0.046085 0.5224
-0.0081597 0.038344 0.51775
-0.008109 0.032647 0.51545
-0.0080748 0.025201 0.51255
-0.0080553 0.019766 0.50909
-0.0080027 0.012423 0.50593
0 0 -1
0 0 -1
0 0 -1
0 0 -1
0 0 -1
0 0 -1
0 0 -1
0 0 -1
0 0 -1
0 0 -1
0 0 -1
0 0 -1
0 0 -1
0 0 -1
0 0 -1
0 0 -1
0 0 -1
0 0 -1
0 0 -1
0 0 -1
0 0 -1
0 0 -1
0 0 -1
0 0 -1
0 0 -1
0 0 -1
0 0 -1
0 0 -1
0 0 -1
0 0 -1
-0.0077211 -0.17695 0.49728
-0.0077959 -0.18584 0.49858
-0.0078472 -0.19362 0.50496
-0.0079577 -0.2026 0.51302
-0.039446 0.54931 1.4335
-0.039907 0.5381 1.4553
-0.041006 0.5337 1.4874
-0.041447 0.51757 1.5085
-0.042205 0.51028 1.5314
-0.042462 0.49259 1.5401
-0.042572 0.47793 1.5438
-0.042536 0.45588 1.5333
-0.041621 0.43006 1.5077
-0.03861 0.37865 1.3959
-0.034322 0.32334 1.2271
-0.034461 0.30667 1.2313
-0.041691 0.35574 1.5034
-0.041846 0.33525 1.5081
-0.041139 0.31402 1.4793
-0.040557 0.2866 1.4571
-0.039792 0.26774 1.4404
-0.039194 0.24229 1.4094
-0.037799 0.22153 1.3716
-0.036926 0.19701 1.3293
-0.018785 0.092903 0.67943
-0.016025 0.070829 0.57636
-0.015186 0.061429 0.54013
-0.014869 0.052693 0.53389
-0.014644 0.046368 0.52615
-0.0145 0.038539 0.52224
-0.014437 0.032778 0.51642
-0.014339 0.025215 0.51267
-0.014278 0.019888 0.5116
-0.014192 0.012479 0.50688
0 0 -1
0 0 -1
0 0 -1
0 0 -1
0 0 -1
0 0 -1
0 0 -1
0 0 -1
0 0 -1
0 0 -1
0 0 -1
0 0 -1
0 0 -1
0 0 -1
0 0 -1
0 0 -1
0 0 -1
0 0 -1
0 0 -1
0 0 -1
0 0 -1
0 0 -1
0 0 -1
0 0 -1
0 0 -1
0 0 -1
0 0 -1
0 0 -1
0 0 -1
0 0 -1
-0.013873 -0.17866 0.49961
-0.013945 -0.18687 0.50293
-0.014118 -0.19606 0.51335
-0.014343 -0.20557 0.51804
-0.056882 0.5496 1.436
-0.057544 0.53787 1.4609
-0.059251 0.53557 1.488
-0.059769 0.51735 1.5081
-0.060729 0.51215 1.5336
-0.061137 0.4935 1.5445
-0.061344 0.47899 1.551
-0.061358 0.45761 1.5487
-0.060485 0.43533 1.5236
-0.057064 0.38827 1.4309
-0.049856 0.32548 1.2446
-0.05005 0.3087 1.2488
-0.061058 0.36049 1.5286
-0.061275 0.33974 1.5334
-0.060172 0.31858 1.504
-0.05912 0.29199 1.4733
-0.057845 0.27147 1.4563
-0.057011 0.24546 1.4288
-0.055626 0.22428 1.3891
-0.054183 0.19938 1.3502
-0.040195 0.13839 1.0112
-0.02437 0.074966 0.60758
-0.022772 0.063902 0.56687
-0.02181 0.053698 0.53946
-0.021103 0.046562 0.53039
-0.020968 0.038629 0.52375
-0.020803 0.032984 0.51939
-0.020621 0.02529 0.51551
-0.020558 0.019884 0.51228
-0.020411 0.012516 0.51
-0.02037 0.0072084 0.50678
0 0 -1
0 0 -1
0 0 -1
0 0 -1
0 0 -1
0 0 -1
0 0 -1
0 0 -1
0 0 -1
0 0 -1
0 0 -1
0 0 -1
0 0 -1
0 0 -1
0 0 -1
0 0 -1
0 0 -1
0 0 -1
0 0 -1
0 0 -1
0 0 -1
0 0 -1
0 0 -1
0 0 -1
0 0 -1
0 0 -1
0 0 -1
0 0 -1
-0.019967 -0.17322 0.50086
-0.020026 -0.18021 0.50386
-0.020103 -0.18852 0.50647
-0.02051 -0.19784 0.51957
-0.021057 -0.2078 0.52676
-0.074118 0.54927 1.4357
-0.075282 0.53848 1.4602
-0.077258 0.53536 1.491
-0.078306 0.52046 1.5073
-0.079333 0.51304 1.5358
-0.080334 0.49551 1.5482
-0.080918 0.48274 1.5564
-0.080863 0.46061 1.5612
-0.079814 0.44253 1.5447
-0.076158 0.39648 1.4691
-0.065275 0.32812 1.2553
-0.065522 0.31121 1.2596
-0.08076 0.36734 1.5565
-0.081039 0.34618 1.5613
-0.079861 0.32401 1.5348
-0.078207 0.29668 1.5009
-0.077007 0.27569 1.4671
-0.075324 0.24998 1.4459
-0.073305 0.22834 1.4131
-0.071528 0.2039 1.3839
-0.06854 0.18026 1.3061
-0.040073 0.094958 0.76762
-0.030771 0.066496 0.58741
-0.02928 0.054982 0.56108
-0.028227 0.048069 0.54451
-0.027326 0.038847 0.52983
-0.027241 0.032973 0.52347
-0.027047 0.0255 0.51756
-0.026982 0.02001 0.51735
-0.026778 0.012558 0.51222
-0.026664 0.0072451 0.51038
-0.026522 -8.5836e-05 0.50815
0 0 -1
0 0 -1
0 0 -1
0 0 -1
0 0 -1
0 0 -1
0 0 -1
0 0 -1
0 0 -1
0 0 -1
0 0 -1
0 0 -1
0 0 -1
0 0 -1
0 0 -1
0 0 -1
0 0 -1
0 0 -1
0 0 -1
0 0 -1
0 0 -1
0 0 -1
0 0 -1
0 0 -1
0 0 -1
0 0 -1
-0.026117 -0.1664 0.50091
-0.026192 -0.17444 0.50396
-0.026347 -0.18089 0.50569
-0.026717 -0.19068 0.51215
-0.027218 -0.19997 0.52356
-0.0286 -0.21706 0.54868
-0.091762 0.54987 1.4288
-0.093192 0.53897 1.4618
-0.095246 0.535 1.4933
-0.096638 0.52162 1.5099
-0.098559 0.51501 1.5354
-0.099421 0.49721 1.5562
-0.10021 0.48483 1.5635
-0.10065 0.46517 1.5698
-0.099767 0.44491 1.5596
-0.096054 0.40479 1.4971
-0.08099 0.33218 1.2697
-0.081291 0.31505 1.274
-0.10127 0.3718 1.5818
-0.10161 0.35089 1.5867
-0.099422 0.32744 1.5545
-0.097505 0.3009 1.5292
-0.095673 0.27804 1.4847
-0.094221 0.25241 1.4637
-0.092272 0.23283 1.4243
-0.090497 0.20818 1.402
-0.08721 0.18555 1.3475
-0.078997 0.15156 1.2349
-0.041586 0.07261 0.65047
-0.03659 0.056006 0.57353
-0.035726 0.049133 0.55563
-0.034793 0.039993 0.53574
-0.03375 0.033392 0.52543
-0.033535 0.025542 0.52265
-0.03343 0.020151 0.51939
-0.033221 0.012628 0.517
-0.033034 0.0072827 0.51437
-0.032833 -8.7719e-05 0.51007
-0.032738 -0.0053676 0.50988
0 0 -1
0 0 -1
0 0 -1
0 0 -1
0 0 -1
0 0 -1
0 0 -1
0 0 -1
0 0 -1
0 0 -1
0 0 -1
0 0 -1
0 0 -1
0 0 -1
0 0 -1
0 0 -1
0 0 -1
0 0 -1
0 0 -1
0 0 -1
0 0 -1
0 0 -1
0 0 -1
0 0 -1
-0.032251 -0.16114 0.50213
-0.032355 -0.16782 0.50477
-0.0326 -0.17588 0.50596
-0.032752 -0.1828 0.5102
-0.033265 -0.19414 0.52142
-0.034308 -0.20491 0.53709
-0.046934 -0.29006 0.73167
-0.10833 0.54838 1.4364
-0.11031 0.53914 1.4571
-0.11319 0.53514 1.4922
-0.11515 0.5219 1.5116
-0.11729 0.51641 1.539
-0.11869 0.49885 1.5578
-0.11959 0.48851 1.5732
-0.12015 0.46838 1.5822
-0.11997 0.44977 1.5729
-0.11725 0.41395 1.5349
-0.097822 0.3335 1.2717
-0.098181 0.3163 1.276
-0.12179 0.37609 1.5983
-0.1222 0.35487 1.6032
-0.12026 0.33494 1.5774
-0.11812 0.30521 1.5467
-0.11516 0.28217 1.5036
-0.11354 0.257 1.4871
-0.11057 0.23499 1.4517
-0.10861 0.21189 1.4196
-0.10518 0.18967 1.3855
-0.10262 0.16576 1.3388
-0.062368 0.092179 0.80989
-0.048767 0.063086 0.6408
-0.042864 0.049165 0.56076
-0.04133 0.040058 0.5443
-0.040587 0.033737 0.53213
-0.040113 0.025863 0.52473
-0.040054 0.020239 0.52348
-0.039754 0.012683 0.5199
-0.039511 0.0073117 0.51688
-0.039232 -9.0451e-05 0.51424
-0.039218 -0.0054036 0.51312
-0.038842 -0.012648 0.50909
0 0 -1
0 0 -1
0 0 -1
0 0 -1
0 0 -1
0 0 -1
0 0 -1
0 0 -1
0 0 -1
0 0 -1
0 0 -1
0 0 -1
0 0 -1
0 0 -1
0 0 -1
0 0 -1
0 0 -1
0 0 -1
0 0 -1
0 0 -1
0 0 -1
0 0 -1
-0.038368 -0.15411 0.503
-0.038476 -0.16224 0.50517
-0.038865 -0.16872 0.50885
-0.038995 -0.17739 0.51147
-0.039556 -0.18525 0.51861
-0.040291 -0.1954 0.5254
-0.049789 -0.24908 0.65285
-0.10495 -0.54541 1.3751
-0.12564 0.55166 1.4338
-0.12757 0.53864 1.4547
-0.13133 0.5371 1.4969
-0.13335 0.52178 1.5126
-0.13647 0.51822 1.5471
-0.13805 0.50056 1.5597
-0.13932 0.49048 1.5816
-0.14006 0.47129 1.5904
-0.13953 0.45281 1.5916
-0.13757 0.42332 1.5601
-0.11365 0.33569 1.2785
-0.11406 0.31837 1.2828
-0.14222 0.38 1.6132
-0.14339 0.36082 1.6241
-0.14153 0.33881 1.6008
-0.13886 0.3107 1.5792
-0.13551 0.28604 1.5365
-0.13247 0.26014 1.5032
-0.12976 0.23721 1.4723
-0.12762 0.21385 1.4371
-0.1246 0.19312 1.4038
-0.12065 0.1684 1.37
-0.11199 0.14306 1.2725
-0.06866 0.07636 0.78277
-0.051183 0.051045 0.57853
-0.049039 0.040802 0.55295
-0.047745 0.034247 0.53609
-0.046873 0.026125 0.5307
-0.046452 0.020439 0.52512
-0.046261 0.012767 0.52373
-0.046067 0.0073423 0.52062
-0.045676 -9.2985e-05 0.51621
-0.045541 -0.0054308 0.51522
-0.045396 -0.012728 0.51357
-0.044959 -0.01791 0.50533
0 0 -1
0 0 -1
0 0 -1
0 0 -1
0 0 -1
0 0 -1
0 0 -1
0 0 -1
0 0 -1
0 0 -1
0 0 -1
0 0 -1
0 0 -1
0 0 -1
0 0 -1
0 0 -1
0 0 -1
0 0 -1
0 0 -1
-0.044337 -0.14173 0.50161
-0.04456 -0.1495 0.50399
-0.044605 -0.1561 0.50675
-0.045162 -0.1634 0.50886
-0.045365 -0.17058 0.51353
-0.045945 -0.1799 0.51885
-0.046574 -0.18725 0.52541
-0.049669 -0.20973 0.56403
-0.11533 -0.49839 1.3041
-0.13011 -0.58788 1.4773
-0.14289 0.54792 1.4275
-0.14495 0.53457 1.453
-0.14921 0.53784 1.4952
-0.1515 0.52356 1.5167
-0.15505 0.51868 1.5469
-0.15693 0.50321 1.5754
-0.15887 0.49201 1.587
-0.1603 0.47385 1.6051
-0.16077 0.45854 1.6083
-0.15912 0.42985 1.5957
-0.13127 0.34078 1.2978
-0.13175 0.3232 1.3022
-0.16358 0.38501 1.631
-0.16442 0.36401 1.6397
-0.16323 0.34433 1.6258
-0.15999 0.31632 1.5982
-0.15632 0.29058 1.5644
-0.1512 0.26111 1.5226
-0.14992 0.24195 1.4837
-0.1468 0.21552 1.4616
-0.14325 0.19553 1.4187
-0.13935 0.17075 1.3909
-0.13407 0.1503 1.3328
-0.12513 0.12217 1.2501
-0.065768 0.057911 0.6553
-0.057579 0.042383 0.57461
-0.05573 0.035059 0.55271
-0.054099 0.026483 0.54021
-0.053418 0.020613 0.53167
-0.052776 0.012932 0.5278
-0.052683 0.0074179 0.52324
-0.052268 -9.6565e-05 0.52008
-0.052003 -0.0054731 0.51713
-0.05171 -0.012792 0.51451
-0.051696 -0.018098 0.51361
-0.051023 -0.025052 0.50675
-0.050996 -0.030278 0.50646
-0.051139 -0.037606 0.50751
-0.051098 -0.042826 0.5071
0 0 -1
0 0 -1
0 0 -1
0 0 -1
0 0 -1
0 0 -1
0 0 -1
0 0 -1
0 0 -1
0 0 -1
0 0 -1
0 0 -1
0 0 -1
-0.050537 -0.12975 0.50357
-0.05051 -0.13744 0.50459
-0.050941 -0.14309 0.50539
-0.05082 -0.15108 0.50768
-0.051521 -0.15657 0.51206
-0.0517 -0.16501 0.51458
-0.052352 -0.1729 0.52058
-0.053004 -0.18218 0.52586
-0.056159 -0.20127 0.56601
-0.094234 -0.34747 0.93612
-0.14858 -0.56868 1.483
-0.14991 -0.59319 1.4928
-0.15887 0.54482 1.4252
-0.16258 0.53394 1.4514
-0.16703 0.5372 1.4937
-0.17003 0.52297 1.518
-0.17402 0.52019 1.5518
-0.17575 0.50344 1.5801
-0.17868 0.49418 1.597
-0.1809 0.47838 1.6211
-0.18202 0.46292 1.6263
-0.1815 0.4379 1.6123
-0.15104 0.3494 1.3452
-0.15158 0.33137 1.3497
-0.18464 0.38725 1.6433
-0.18552 0.36624 1.6565
-0.18442 0.34731 1.6412
-0.18228 0.3182 1.6224
-0.17732 0.29513 1.5798
-0.17499 0.26678 1.553
-0.1685 0.24268 1.5063
-0.16582 0.21769 1.4676
-0.16075 0.19745 1.4353
-0.15795 0.1714 1.4065
-0.15332 0.15257 1.3601
-0.14911 0.13112 1.3322
-0.1334 0.10377 1.1788
-0.073682 0.048501 0.65521
-0.065166 0.036733 0.57821
-0.062313 0.027224 0.5524
-0.060563 0.020907 0.54262
-0.060227 0.013028 0.53372
-0.059549 0.007469 0.52725
-0.059047 -0.00010055 0.52262
-0.058795 -0.0054991 0.52038
-0.058443 -0.012928 0.51904
-0.058159 -0.018247 0.51618
-0.057956 -0.025565 0.5148
-0.057589 -0.030697 0.51162
-0.05744 -0.037892 0.50967
-0.057491 -0.043203 0.51072
-0.05745 -0.050393 0.5086
-0.057389 -0.055561 0.50766
0 0 -1
0 0 -1
0 0 -1
0 0 -1
0 0 -1
0 0 -1
0 0 -1
-0.056848 -0.10492 0.50338
-0.056679 -0.11182 0.50191
-0.056864 -0.1173 0.50292
-0.057152 -0.12553 0.50668
-0.057203 -0.13085 0.50747
-0.057337 -0.1381 0.50852
-0.057291 -0.14414 0.50946
-0.057836 -0.15159 0.51235
-0.058159 -0.15809 0.51608
-0.058875 -0.16779 0.52158
-0.059597 -0.17569 0.52754
-0.063685 -0.19682 0.5672
-0.097411 -0.31052 0.86951
-0.1674 -0.55333 1.4923
-0.16913 -0.57415 1.5053
-0.16853 -0.59486 1.5029
-0.17607 0.5434 1.4234
-0.17987 0.53371 1.4462
-0.18538 0.5361 1.4927
-0.18852 0.52228 1.5136
-0.19257 0.52058 1.5502
-0.19635 0.50572 1.5781
-0.19929 0.49884 1.6127
-0.20165 0.48009 1.6236
-0.20324 0.46599 1.6319
-0.20352 0.44293 1.6361
-0.17465 0.36606 1.4095
-0.17527 0.34716 1.4142
-0.20721 0.39147 1.665
-0.20789 0.36894 1.6702
-0.20564 0.3494 1.6578
-0.20408 0.32245 1.6381
-0.20008 0.29985 1.6108
-0.19638 0.27176 1.5759
-0.19091 0.24878 1.5234
-0.18615 0.22093 1.5
-0.17931 0.19801 1.4411
-0.17602 0.17396 1.4078
-0.17154 0.15681 1.3804
-0.16946 0.13294 1.3472
-0.16506 0.11665 1.3267
-0.14304 0.085698 1.1566
-0.082547 0.041913 0.66135
-0.072982 0.028616 0.58378
-0.069762 0.021686 0.55521
-0.067507 0.01335 0.54163
-0.066801 0.0075121 0.53464
-0.066231 -0.00010484 0.52927
-0.065592 -0.0055442 0.52296
-0.065317 -0.013006 0.52036
-0.064929 -0.018324 0.51936
-0.064831 -0.025696 0.51784
-0.064507 -0.030942 0.51592
-0.06425 -0.038214 0.51516
-0.064117 -0.043496 0.51346
-0.064022 -0.050713 0.51272
-0.063924 -0.055973 0.50926
-0.063583 -0.063116 0.50799
-0.063501 -0.068326 0.50733
-0.063383 -0.075487 0.50718
-0.063333 -0.080615 0.50662
-0.063485 -0.087698 0.5055
-0.063466 -0.092797 0.50655
-0.063347 -0.10045 0.50722
-0.063346 -0.10571 0.50752
-0.063562 -0.11314 0.50796
-0.063636 -0.11879 0.50967
-0.063576 -0.12634 0.50974
-0.064038 -0.13189 0.511
-0.064109 -0.13943 0.51195
-0.064361 -0.14562 0.5142
-0.065084 -0.15387 0.51805
-0.06552 -0.1619 0.52351
-0.066211 -0.1707 0.52847
-0.071804 -0.19136 0.57549
-0.11764 -0.326 0.9412
-0.18527 -0.53137 1.4847
-0.1881 -0.56042 1.5088
-0.18844 -0.57844 1.5119
-0.18836 -0.59738 1.512
-0.19253 0.54407 1.4197
-0.19695 0.53295 1.4442
-0.20353 0.53533 1.4922
-0.20656 0.52146 1.5146
-0.21193 0.51982 1.5594
-0.21544 0.50506 1.5787
-0.21958 0.49994 1.6147
-0.22237 0.48211 1.6351
-0.22415 0.46901 1.6427
-0.22463 0.44393 1.6456
-0.19972 0.38015 1.4636
-0.20042 0.36053 1.4684
-0.2282 0.39532 1.6731
-0.23003 0.37254 1.6855
-0.22807 0.35236 1.6711
-0.22589 0.32553 1.653
-0.2224 0.30278 1.6232
-0.21774 0.27489 1.5995
-0.21281 0.25149 1.5599
-0.20701 0.2242 1.5183
-0.19991 0.20011 1.4526
-0.19359 0.17528 1.4292
-0.19048 0.15844 1.4002
-0.18806 0.1357 1.3802
-0.18432 0.11888 1.3463
-0.1804 0.096944 1.3214
-0.1619 0.074627 1.1775
-0.097189 0.034972 0.7088
-0.080004 0.02269 0.5873
-0.076989 0.013721 0.56101
-0.074374 0.0077434 0.54325
-0.073969 -0.00011004 0.53789
-0.072805 -0.0056286 0.53212
-0.072279 -0.01318 0.53045
-0.071854 -0.018464 0.52558
-0.071481 -0.025852 0.52037
-0.071414 -0.031211 0.51806
-0.071163 -0.038583 0.51757
-0.070975 -0.043856 0.5171
-0.070796 -0.051001 0.51572
-0.070595 -0.056204 0.51398
-0.07042 -0.063421 0.51318
-0.070329 -0.068656 0.51223
-0.069982 -0.075915 0.51129
-0.070119 -0.081465 0.51051
-0.070012 -0.088631 0.50983
-0.069934 -0.093851 0.51009
-0.070195 -0.10093 0.51096
-0.070064 -0.10656 0.51165
-0.069995 -0.11358 0.51132
-0.070203 -0.11943 0.5117
-0.070399 -0.12711 0.51474
-0.071017 -0.13375 0.5173
-0.071473 -0.14132 0.52258
-0.071914 -0.14818 0.52166
-0.072332 -0.15746 0.52489
-0.073844 -0.16544 0.53686
-0.079736 -0.18715 0.58046
-0.13831 -0.3372 1.0118
-0.20454 -0.51899 1.5
-0.20706 -0.5412 1.5163
-0.20761 -0.56464 1.5177
-0.2082 -0.58036 1.5195
-0.2073 -0.59937 1.5142
-0.20997 0.54284 1.4098
-0.21367 0.53212 1.4421
-0.22097 0.53371 1.49
-0.22468 0.52064 1.5188
-0.23076 0.52012 1.5575
-0.23465 0.50539 1.5793
-0.23998 0.50261 1.6134
-0.24291 0.4839 1.6358
-0.2459 0.47046 1.6606
-0.24683 0.44818 1.6605
-0.22427 0.39413 1.5068
-0.22505 0.37378 1.5118
-0.2519 0.39908 1.6877
-0.25299 0.37788 1.7045
-0.25072 0.35603 1.6896
-0.24846 0.32889 1.6728
-0.24434 0.30795 1.6447
-0.24163 0.27959 1.6242
-0.23535 0.25616 1.5849
-0.22865 0.2276 1.5443
-0.22266 0.20523 1.5086
-0.2157 0.17861 1.4527
-0.21062 0.16001 1.4165
-0.20695 0.13754 1.394
-0.20468 0.1213 1.375
-0.20052 0.099444 1.3464
-0.19802 0.083857 1.3248
-0.18821 0.062363 1.2639
-0.10865 0.028277 0.73656
-0.091979 0.014975 0.6125
-0.085182 0.0080563 0.57352
-0.083241 -0.00011912 0.55731
-0.080769 -0.0057323 0.54413
-0.08035 -0.013289 0.5382
-0.079199 -0.018734 0.53007
-0.078442 -0.026028 0.52692
-0.078401 -0.031423 0.52656
-0.078331 -0.038895 0.52394
-0.078096 -0.044253 0.52175
-0.077773 -0.051606 0.52048
-0.077358 -0.056775 0.51739
-0.077224 -0.063805 0.51656
-0.077136 -0.069406 0.51774
-0.076976 -0.07651 0.51674
-0.076969 -0.082014 0.51595
-0.077157 -0.08922 0.51517
-0.077063 -0.094665 0.51762
-0.077087 -0.10262 0.51718
-0.077086 -0.10807 0.51689
-0.076938 -0.11514 0.51835
-0.077655 -0.12056 0.5176
-0.077966 -0.12872 0.52285
-0.078286 -0.13507 0.52407
-0.078438 -0.14382 0.5289
-0.079307 -0.15022 0.52948
-0.082384 -0.16365 0.55337
-0.097446 -0.20074 0.65378
-0.15868 -0.34279 1.0656
-0.22513 -0.50324 1.5128
-0.22633 -0.52706 1.5214
-0.22672 -0.5444 1.5254
-0.22722 -0.56623 1.5279
-0.2271 -0.58309 1.5268
-0.22655 -0.60245 1.5227
-0.22626 0.5376 1.4054
-0.23035 0.53097 1.4334
-0.23856 0.53281 1.4921
-0.24256 0.52104 1.5164
-0.24953 0.52048 1.5553
-0.2535 0.50452 1.5769
-0.2609 0.50314 1.6231
-0.26345 0.48505 1.6483
-0.26815 0.47543 1.6704
-0.26916 0.45326 1.6764
-0.25102 0.40641 1.5551
-0.2519 0.38542 1.5603
-0.2742 0.40178 1.7058
-0.27689 0.38122 1.7225
-0.27473 0.36081 1.7064
-0.27205 0.33226 1.6898
-0.2688 0.31151 1.6723
-0.26439 0.28391 1.6458
-0.26095 0.2619 1.6187
-0.25459 0.23347 1.5854
-0.24715 0.21156 1.5437
-0.24076 0.18386 1.4974
-0.23518 0.16347 1.4519
-0.22781 0.13965 1.416
-0.22357 0.12295 1.3928
-0.22233 0.10152 1.3741
-0.21745 0.085708 1.352
-0.2141 0.06528 1.3335
-0.2044 0.049556 1.275
-0.17459 0.026419 1.078
-0.1145 0.010103 0.71689
-0.10114 -0.00013974 0.62673
-0.091565 -0.0060269 0.57115
-0.08965 -0.01382 0.55702
-0.087129 -0.019284 0.54126
-0.086819 -0.026772 0.53717
-0.085902 -0.032273 0.53678
-0.0858 -0.039549 0.53116
-0.085254 -0.044704 0.52796
-0.084683 -0.05211 0.52614
-0.084472 -0.057083 0.52447
-0.083995 -0.064462 0.52182
-0.083889 -0.069987 0.52296
-0.083847 -0.077515 0.52393
-0.083875 -0.082607 0.52319
-0.084106 -0.090114 0.52201
-0.084067 -0.095498 0.5213
-0.084417 -0.10372 0.52213
-0.084569 -0.10963 0.52271
-0.084897 -0.11685 0.52473
-0.084992 -0.1226 0.52702
-0.086046 -0.1304 0.53014
-0.086279 -0.13843 0.53656
-0.088877 -0.15025 0.55222
-0.097072 -0.17034 0.60055
-0.12273 -0.225 0.76062
-0.2295 -0.43947 1.4285
-0.24423 -0.48844 1.5188
-0.24638 -0.50742 1.5276
-0.24655 -0.52933 1.5285
-0.24659 -0.54743 1.5334
-0.24653 -0.56888 1.5298
-0.24594 -0.58361 1.5275
-0.24476 -0.60274 1.5238
-0.24198 0.53662 1.3998
-0.24725 0.52577 1.4288
-0.25578 0.53113 1.4895
-0.26058 0.52009 1.5106
-0.26831 0.51922 1.5531
-0.27277 0.50648 1.5791
-0.28025 0.50284 1.6218
-0.28369 0.48443 1.6504
-0.28922 0.47843 1.6761
-0.29031 0.45612 1.6821
-0.276 0.41588 1.6024
-0.27696 0.3944 1.6077
-0.29721 0.40542 1.7187
-0.29891 0.38437 1.7303
-0.29778 0.36425 1.7234
-0.29566 0.33685 1.7112
-0.29296 0.3163 1.6954
-0.28974 0.2878 1.6732
-0.28429 0.26677 1.6499
-0.28064 0.23883 1.619
-0.27452 0.21698 1.5874
-0.26685 0.19086 1.552
-0.25932 0.16942 1.5074
-0.25279 0.14513 1.4647
-0.2464 0.12491 1.4252
-0.2429 0.10374 1.4019
-0.2392 0.087816 1.3749
-0.23464 0.06653 1.3552
-0.23043 0.051587 1.3316
-0.22519 0.031705 1.3059
-0.2133 0.017392 1.2339
-0.1736 -0.00023489 1.0106
-0.11775 -0.0072407 0.67809
-0.10318 -0.014842 0.59279
-0.099165 -0.020191 0.57235
-0.097307 -0.027827 0.56174
-0.095099 -0.032904 0.54935
-0.094708 -0.040688 0.54796
-0.09329 -0.045658 0.53609
-0.092261 -0.052749 0.53321
-0.092167 -0.057901 0.53186
-0.091766 -0.065321 0.52834
-0.09165 -0.070712 0.52984
-0.091438 -0.078353 0.52622
-0.091301 -0.083717 0.52802
-0.091322 -0.091745 0.53017
-0.09193 -0.097299 0.52958
-0.091953 -0.10485 0.52822
-0.092605 -0.11075 0.53122
-0.092693 -0.11895 0.53839
-0.09514 -0.12709 0.54583
-0.097779 -0.1391 0.56121
-0.10448 -0.1555 0.60376
-0.12237 -0.19269 0.70796
-0.22324 -0.36442 1.2863
-0.26124 -0.44844 1.5159
-0.26532 -0.47116 1.5337
-0.26623 -0.49301 1.5344
-0.26583 -0.51139 1.5363
-0.26555 -0.53259 1.5384
-0.26608 -0.54985 1.5363
-0.26574 -0.57002 1.5332
-0.26552 -0.58509 1.5316
-0.26425 -0.60428 1.5253
-0.25645 0.53484 1.3859
-0.26327 0.52463 1.4267
-0.27234 0.52951 1.4759
-0.27829 0.5184 1.5026
-0.28672 0.51927 1.5502
-0.29144 0.50605 1.5795
-0.30076 0.50276 1.618
-0.30453 0.48659 1.6491
-0.31109 0.48074 1.6862
-0.31225 0.45831 1.6922
-0.30128 0.42709 1.6376
-0.30231 0.40502 1.643
-0.3198 0.40725 1.7294
-0.32209 0.38635 1.7411
-0.32053 0.36643 1.7327
-0.3191 0.33984 1.726
-0.31651 0.31937 1.7109
-0.31401 0.29237 1.6996
-0.30998 0.27142 1.6751
-0.30701 0.24455 1.6518
-0.30083 0.22366 1.6277
-0.29628 0.19696 1.601
-0.28822 0.1758 1.5608
-0.28319 0.15124 1.5294
-0.275 0.13084 1.4793
-0.26901 0.10736 1.4471
-0.26192 0.089863 1.4095
-0.25691 0.068556 1.3969
-0.25344 0.053 1.3606
-0.24872 0.032856 1.3329
-0.24344 0.018257 1.3129
-0.23968 -0.00031126 1.2825
-0.22052 -0.012543 1.1884
-0.17183 -0.02315 0.93532
-0.12963 -0.024597 0.70327
-0.11534 -0.030893 0.62352
-0.10715 -0.034646 0.57729
-0.10582 -0.042253 0.56916
-0.10341 -0.047338 0.55936
-0.10289 -0.055077 0.55717
-0.10237 -0.060453 0.55521
-0.10161 -0.068141 0.55404
-0.10143 -0.073745 0.54886
-0.10113 -0.081381 0.54502
-0.10098 -0.086944 0.54693
-0.10237 -0.095668 0.5457
-0.10219 -0.10173 0.54873
-0.10375 -0.11011 0.56078
-0.10646 -0.11966 0.57445
-0.10928 -0.13091 0.58978
-0.11878 -0.14983 0.64206
-0.14677 -0.19719 0.79264
-0.23861 -0.33242 1.2888
-0.27878 -0.40957 1.5084
-0.28557 -0.43658 1.5418
-0.28634 -0.45883 1.5429
-0.2861 -0.47372 1.5441
-0.2858 -0.49596 1.5428
-0.28625 -0.51322 1.5447
-0.28552 -0.53468 1.5421
-0.28548 -0.55079 1.5408
-0.28478 -0.57152 1.5366
-0.28446 -0.58529 1.5329
-0.2831 -0.6045 1.5347
-0.27213 0.53207 1.3875
-0.27943 0.52296 1.4206
-0.28957 0.52842 1.4678
-0.2947 0.51673 1.499
-0.30541 0.51808 1.5471
-0.31037 0.50442 1.573
-0.31976 0.50231 1.6184
-0.32475 0.48692 1.6479
-0.33129 0.48108 1.6861
-0.33252 0.45863 1.692
-0.32636 0.43254 1.6585
-0.32747 0.41018 1.6639
-0.34173 0.40985 1.7375
-0.34432 0.38743 1.7486
-0.34323 0.36865 1.7459
-0.34197 0.34156 1.7337
-0.34 0.32191 1.7287
-0.3373 0.29559 1.7156
-0.33489 0.27507 1.6999
-0.33203 0.2492 1.6881
-0.32707 0.22893 1.6666
-0.32446 0.20181 1.6492
-0.31909 0.18224 1.6151
-0.31392 0.15674 1.5935
-0.30778 0.13668 1.5533
-0.30261 0.11254 1.5287
-0.29368 0.094574 1.4877
-0.28754 0.071631 1.4581
-0.27868 0.054877 1.4182
-0.27647 0.033938 1.3896
-0.26895 0.019126 1.3643
-0.26524 -0.0003425 1.3449
-0.26086 -0.014059 1.3168
-0.2551 -0.03237 1.3035
-0.24735 -0.044526 1.262
-0.22058 -0.054998 1.1204
-0.1628 -0.049737 0.82553
-0.14888 -0.055979 0.75849
-0.13582 -0.058169 0.68467
-0.1285 -0.063969 0.65012
-0.12157 -0.067431 0.61786
-0.11967 -0.075247 0.60882
-0.11757 -0.079858 0.59576
-0.11735 -0.088227 0.59462
-0.11973 -0.09632 0.60676
-0.12333 -0.10775 0.62401
-0.12674 -0.11813 0.6426
-0.13899 -0.13883 0.70349
-0.17841 -0.18845 0.90497
-0.22298 -0.25089 1.1275
-0.28835 -0.33988 1.4553
-0.30365 -0.38106 1.54
-0.30576 -0.39947 1.5521
-0.30642 -0.42338 1.5541
-0.30727 -0.4398 1.5536
-0.30645 -0.46104 1.5529
-0.3056 -0.47604 1.5543
-0.30575 -0.49788 1.5494
-0.30493 -0.51362 1.5485
-0.30517 -0.53542 1.5443
-0.30465 -0.55074 1.5432
-0.30402 -0.57263 1.5398
-0.30317 -0.58674 1.5369
-0.30205 -0.60251 1.5297
-0.28791 0.5259 1.3779
-0.29408 0.51903 1.4097
-0.3056 0.52442 1.4617
-0.31165 0.51541 1.4929
-0.32346 0.51695 1.5471
-0.3287 0.50305 1.5701
-0.3383 0.50119 1.6149
-0.34392 0.48611 1.6444
-0.35177 0.48067 1.6829
-0.35418 0.45895 1.6941
-0.35075 0.43731 1.6884
-0.35194 0.4147 1.6939
-0.36427 0.4105 1.7439
-0.36547 0.38717 1.7491
-0.36596 0.36961 1.7521
-0.36436 0.34385 1.747
-0.36277 0.32345 1.7329
-0.36096 0.29775 1.7323
-0.35916 0.2779 1.718
-0.35683 0.25195 1.706
-0.3549 0.23231 1.6961
-0.35214 0.20668 1.6778
-0.34658 0.18689 1.6693
-0.34415 0.16157 1.645
-0.33989 0.14221 1.6256
-0.33631 0.11825 1.605
-0.32923 0.10008 1.5726
-0.32413 0.076164 1.5452
-0.31863 0.059037 1.529
-0.31334 0.036657 1.5028
-0.30552 0.020636 1.4682
-0.30238 -0.00038119 1.439
-0.29657 -0.015047 1.4167
-0.29606 -0.035167 1.4139
-0.29406 -0.049586 1.4041
-0.29144 -0.069331 1.398
-0.28903 -0.083125 1.3726
-0.28878 -0.10288 1.3714
-0.29033 -0.11717 1.3822
-0.28998 -0.13682 1.3804
-0.27759 -0.14518 1.3326
-0.26913 -0.15997 1.2909
-0.26311 -0.16876 1.2576
-0.26262 -0.18645 1.2552
-0.2696 -0.20467 1.2917
-0.28915 -0.23942 1.3805
-0.30973 -0.27195 1.481
-0.32115 -0.30361 1.5321
-0.32556 -0.32532 1.5585
-0.32637 -0.34722 1.5587
-0.32722 -0.36436 1.5661
-0.32765 -0.38703 1.5657
-0.32764 -0.40323 1.5646
-0.32678 -0.42451 1.561
-0.3266 -0.44063 1.561
-0.3265 -0.46191 1.5565
-0.32618 -0.47779 1.5575
-0.32501 -0.49851 1.5569
-0.32506 -0.51532 1.5533
-0.32386 -0.53673 1.548
-0.32364 -0.55193 1.5454
-0.32244 -0.57228 1.5413
-0.32148 -0.5864 1.5362
-0.32013 -0.6067 1.5291
-0.30269 0.52741 1.3659
-0.30896 0.51626 1.395
-0.32107 0.5225 1.4583
-0.32762 0.51196 1.4788
-0.34034 0.51541 1.538
-0.34561 0.501 1.5655
-0.35598 0.50001 1.6159
-0.3628 0.48496 1.6406
-0.37124 0.47952 1.6846
-0.37433 0.45939 1.6907
-0.37472 0.44294 1.6943
-0.37599 0.42003 1.6998
-0.3844 0.41043 1.7398
-0.38718 0.38712 1.7474
-0.38801 0.37002 1.7525
-0.3872 0.34448 1.751
-0.38538 0.32542 1.7456
-0.38524 0.299 1.7369
-0.38273 0.27996 1.7312
-0.38109 0.25409 1.7173
-0.37831 0.23487 1.7118
-0.37609 0.20906 1.7033
-0.37291 0.19043 1.6873
-0.37112 0.16546 1.6768
-0.36729 0.1464 1.6666
-0.36518 0.12196 1.6505
-0.36054 0.10348 1.6319
-0.35901 0.079362 1.6218
-0.35323 0.061538 1.6024
-0.35081 0.038761 1.5874
-0.34714 0.022143 1.5721
-0.34568 -0.00043077 1.5589
-0.34144 -0.016465 1.5405
-0.33904 -0.038323 1.539
-0.33791 -0.053775 1.5267
-0.3362 -0.075138 1.5099
-0.33384 -0.090306 1.5055
-0.33355 -0.11176 1.5042
-0.34006 -0.12991 1.535
-0.34197 -0.15307 1.5438
-0.34486 -0.17008 1.5547
-0.34676 -0.19318 1.5648
-0.34777 -0.21079 1.5692
-0.34802 -0.23389 1.5697
-0.34907 -0.2499 1.5813
-0.34879 -0.27211 1.5795
-0.34971 -0.28985 1.5806
-0.34969 -0.3124 1.5769
-0.34901 -0.32825 1.5765
-0.34803 -0.34997 1.5738
-0.34874 -0.36557 1.5726
-0.3479 -0.38897 1.5731
-0.34731 -0.4044 1.5724
-0.34658 -0.4264 1.5687
-0.3468 -0.44185 1.5662
-0.34566 -0.46352 1.5613
-0.34546 -0.47958 1.5605
-0.34427 -0.50077 1.5548
-0.34382 -0.51621 1.5546
-0.34307 -0.53705 1.5491
-0.34304 -0.55215 1.5474
-0.34151 -0.5721 1.5412
-0.34035 -0.58621 1.5346
-0.33772 -0.60403 1.5241
-0.31554 0.51762 1.3511
-0.32346 0.5125 1.3895
-0.3371 0.51688 1.444
-0.34353 0.50837 1.471
-0.35634 0.51201 1.5325
-0.36308 0.49891 1.5591
-0.37453 0.49796 1.6121
-0.3813 0.48333 1.6351
-0.39105 0.47904 1.6808
-0.39638 0.46019 1.6975
-0.39739 0.44371 1.7016
-0.39883 0.42144 1.714
-0.40445 0.40949 1.7355
-0.40749 0.38735 1.7534
-0.40966 0.37048 1.757
-0.40901 0.34518 1.7532
-0.40702 0.32575 1.7471
-0.40654 0.30042 1.745
-0.40515 0.28121 1.7353
-0.4036 0.25542 1.7337
-0.40181 0.23668 1.7239
-0.40037 0.21064 1.7177
-0.39957 0.19259 1.7136
-0.39704 0.16744 1.6984
-0.39461 0.14858 1.6884
-0.39332 0.1238 1.6822
-0.39001 0.10577 1.6656
-0.3876 0.081402 1.6577
-0.38343 0.06384 1.6483
-0.38321 0.039904 1.6411
-0.37942 0.02273 1.6263
-0.37826 -0.00046552 1.619
-0.375 -0.017111 1.6125
-0.37295 -0.040073 1.5938
-0.37171 -0.05651 1.593
-0.36852 -0.078696 1.584
-0.36635 -0.093906 1.5685
-0.36603 -0.11621 1.5671
-0.37111 -0.13465 1.5909
-0.37292 -0.15772 1.5892
-0.37274 -0.1743 1.5946
-0.37272 -0.19797 1.5997
-0.37388 -0.21431 1.5993
-0.37361 -0.23714 1.5967
-0.37306 -0.25356 1.5974
-0.37206 -0.27595 1.5952
-0.37143 -0.29221 1.5925
-0.37162 -0.31428 1.5885
-0.37091 -0.33045 1.5856
-0.36981 -0.35225 1.5816
-0.36902 -0.36804 1.5796
-0.36814 -0.39035 1.5762
-0.36773 -0.4062 1.5777
-0.36771 -0.42763 1.5724
-0.3668 -0.44269 1.5684
-0.36634 -0.46447 1.5644
-0.36464 -0.47943 1.5625
-0.36424 -0.50151 1.5591
-0.36403 -0.51637 1.555
-0.36257 -0.53682 1.5501
-0.36137 -0.55174 1.5456
-0.36048 -0.57289 1.5389
-0.35842 -0.58598 1.5327
-0.35697 -0.60417 1.524
-0.32757 0.50992 1.3417
-0.33679 0.50847 1.38
-0.3509 0.51365 1.4319
-0.35868 0.50283 1.4605
-0.3714 0.50637 1.5197
-0.37956 0.49668 1.5552
-0.39294 0.49667 1.6049
-0.39861 0.47995 1.631
-0.40992 0.47651 1.6765
-0.41584 0.45897 1.6939
-0.41689 0.44253 1.698
-0.42052 0.42222 1.7153
-0.42398 0.40827 1.7261
-0.42971 0.38755 1.7517
-0.43061 0.37043 1.7564
-0.43051 0.34607 1.7571
-0.42974 0.32659 1.7517
-0.42798 0.30035 1.7473
-0.42715 0.28094 1.7432
-0.42589 0.25622 1.7356
-0.42541 0.23788 1.7284
-0.42227 0.21203 1.7283
-0.42117 0.19338 1.7201
-0.42086 0.16857 1.7151
-0.41949 0.15033 1.7115
-0.41674 0.12528 1.7008
-0.41546 0.10726 1.693
-0.41402 0.082611 1.6814
-0.41209 0.064691 1.6777
-0.40987 0.04058 1.6628
-0.40767 0.023255 1.6587
-0.40582 -0.00050116 1.6529
-0.40464 -0.017533 1.6471
-0.40298 -0.040954 1.6366
-0.40026 -0.057655 1.63
-0.39714 -0.080199 1.6168
-0.39498 -0.096653 1.6092
-0.39464 -0.1196 1.6077
-0.3977 -0.13747 1.6232
-0.39907 -0.16052 1.6218
-0.39868 -0.17749 1.6201
-0.39713 -0.19989 1.6159
-0.39603 -0.21649 1.6136
-0.39496 -0.23907 1.6104
-0.39438 -0.25473 1.6039
-0.39307 -0.27694 1.6004
-0.3924 -0.29305 1.597
-0.39143 -0.31511 1.593
-0.39122 -0.33137 1.59
-0.39013 -0.35287 1.587
-0.38912 -0.36855 1.5838
-0.38792 -0.39005 1.5789
-0.38745 -0.40629 1.5755
-0.38671 -0.4276 1.5749
-0.38597 -0.44339 1.5709
-0.38489 -0.46452 1.5664
-0.38414 -0.48044 1.5646
-0.38341 -0.50142 1.5585
-0.38243 -0.51588 1.5539
-0.3812 -0.53733 1.5502
-0.38002 -0.55207 1.5455
-0.37834 -0.5718 1.5388
-0.37632 -0.58527 1.5334
-0.37388 -0.60119 1.5162
-0.34017 0.50379 1.324
-0.35029 0.50314 1.3633
-0.36549 0.51037 1.4269
-0.37251 0.50114 1.4521
-0.38848 0.5031 1.5058
-0.39593 0.4913 1.5405
-0.40895 0.49251 1.5939
-0.41553 0.47859 1.6223
-0.42896 0.47418 1.6672
-0.43493 0.4563 1.6887
-0.43602 0.43995 1.6927
-0.44003 0.42104 1.7107
-0.44162 0.40425 1.7164
-0.45084 0.38753 1.7503
-0.45178 0.3703 1.7562
-0.45087 0.3453 1.7562
-0.45079 0.32741 1.7525
-0.45046 0.30136 1.7498
-0.44811 0.28194 1.7445
-0.44729 0.25624 1.742
-0.44581 0.23793 1.7349
-0.44589 0.21303 1.7299
-0.44371 0.19431 1.726
-0.44281 0.16938 1.7192
-0.4415 0.151 1.7129
-0.4399 0.12612 1.7085
-0.43832 0.10774 1.7073
-0.43772 0.083265 1.7016
-0.43651 0.065425 1.6917
-0.43504 0.040976 1.6843
-0.43078 0.023509 1.6794
-0.43081 -0.00053042 1.6757
-0.43077 -0.017863 1.6691
-0.4283 -0.041619 1.6625
-0.42636 -0.058443 1.6562
-0.41994 -0.080796 1.6257
-0.41943 -0.097592 1.6246
-0.41908 -0.12076 1.6232
-0.42072 -0.13836 1.6338
-0.42028 -0.16155 1.6318
-0.41987 -0.1783 1.6278
-0.41806 -0.20105 1.6224
-0.41742 -0.21724 1.6169
-0.41666 -0.23989 1.6128
-0.41477 -0.2558 1.6086
-0.41344 -0.27827 1.6017
-0.41313 -0.29412 1.5989
-0.41211 -0.31632 1.5949
-0.41133 -0.33201 1.5935
-0.41051 -0.3539 1.5891
-0.4084 -0.36963 1.586
-0.40852 -0.39088 1.5818
-0.40648 -0.40671 1.5797
-0.40581 -0.42831 1.5754
-0.40479 -0.44435 1.5728
-0.40346 -0.46579 1.5684
-0.40292 -0.4808 1.5672
-0.40171 -0.50158 1.5611
-0.40074 -0.51591 1.5553
-0.39908 -0.53603 1.5482
-0.39785 -0.55108 1.5434
-0.39608 -0.57105 1.535
-0.39456 -0.58466 1.5301
-0.39132 -0.60061 1.5228
-0.35192 0.50105 1.309
-0.36387 0.49663 1.3476
-0.37797 0.50492 1.4151
-0.38732 0.49718 1.4363
-0.40267 0.49938 1.4916
-0.41066 0.48642 1.5323
-0.4246 0.49031 1.5839
-0.43193 0.47682 1.6072
-0.44578 0.47233 1.6504
-0.45228 0.45279 1.6782
-0.45341 0.43656 1.6822
-0.45639 0.41645 1.6896
-0.45743 0.39984 1.6933
-0.47074 0.38623 1.7494
-0.47184 0.36956 1.753
-0.4727 0.34521 1.7575
-0.47109 0.32656 1.7506
-0.47155 0.30134 1.7478
-0.4704 0.28236 1.745
-0.46867 0.2567 1.7437
-0.4675 0.23787 1.7393
-0.46618 0.21304 1.7328
-0.46504 0.19455 1.7285
-0.46382 0.16943 1.7233
-0.46341 0.1512 1.7141
-0.46197 0.12619 1.7131
-0.45998 0.10814 1.7045
-0.45843 0.08325 1.7035
-0.45784 0.06558 1.6997
-0.45646 0.041148 1.6934
-0.45512 0.02359 1.6873
-0.45267 -0.00055674 1.6799
-0.45194 -0.017931 1.6735
-0.45017 -0.041753 1.6704
-0.44733 -0.05873 1.6571
-0.44478 -0.081839 1.6504
-0.44 -0.098105 1.6371
-0.43946 -0.1213 1.6303
-0.4412 -0.13876 1.6349
-0.44142 -0.1622 1.6358
-0.44084 -0.17862 1.6336
-0.43906 -0.20136 1.626
-0.4375 -0.21757 1.6225
-0.43657 -0.24037 1.6165
-0.43538 -0.25592 1.6142
-0.4343 -0.27816 1.6063
-0.43257 -0.29406 1.6036
-0.43153 -0.31625 1.5996
-0.43072 -0.33225 1.5966
-0.42954 -0.35415 1.5885
-0.42807 -0.3692 1.5852
-0.42766 -0.39075 1.5825
-0.42675 -0.40721 1.5812
-0.42502 -0.42884 1.576
-0.42396 -0.44412 1.573
-0.42293 -0.46564 1.5679
-0.42179 -0.48104 1.5642
-0.41992 -0.50082 1.5582
-0.41871 -0.51505 1.5542
-0.41685 -0.53502 1.5479
-0.4154 -0.54954 1.5401
-0.4132 -0.56857 1.5314
-0.41082 -0.58081 1.5258
-0.40864 -0.59893 1.5201
-0.36065 0.49179 1.2898
-0.37593 0.49188 1.3317
-0.39107 0.49614 1.3893
-0.40067 0.49074 1.4222
-0.41692 0.49349 1.4825
-0.42573 0.48442 1.5173
-0.44005 0.48415 1.5581
-0.44797 0.47008 1.598
-0.46241 0.4693 1.6413
-0.46903 0.45051 1.6641
-0.47746 0.44181 1.6982
-0.46612 0.40586 1.6505
-0.47033 0.39187 1.6742
-0.49006 0.38505 1.7448
-0.49364 0.36975 1.7594
-0.49284 0.34414 1.7523
-0.49224 0.32529 1.7555
-0.49118 0.30034 1.7489
-0.49211 0.2828 1.7422
-0.48936 0.25602 1.7432
-0.48885 0.23827 1.7415
-0.48677 0.2128 1.7313
-0.48704 0.19447 1.7276
-0.48418 0.16917 1.7256
-0.48304 0.15123 1.7169
-0.48322 0.12613 1.7079
