# .PCD v0.7 - Point Cloud Data file format
VERSION 0.7
FIELDS x y z
SIZE 4 4 4
TYPE F F F
COUNT 1 1 1
WIDTH 2304
HEIGHT 1
VIEWPOINT 0 0 0 1 0 0 0
POINTS 2304
DATA ascii
0.27696 0.2321 0.8942
0.27238 0.21564 0.87549
0.27308 0.20546 0.8677
0.27271 0.19431 0.88002
0.28577 0.19467 0.92954
0.2908 0.18461 0.95007
0.24564 0.14646 0.781
0.19593 0.10844 0.62918
0.18479 0.095992 0.59105
0.18515 0.087621 0.59425
0.1857 0.082234 0.59837
0.18729 0.073729 0.59875
0.19085 0.06897 0.61453
0.19018 0.060012 0.60965
0.18792 0.052853 0.60203
0.18261 0.042825 0.57724
0.17706 0.036205 0.56705
0.17845 0.027939 0.5693
0.17533 0.021447 0.55958
0.17378 0.013508 0.55323
0.17283 0.0076981 0.55245
0.17112 -0.00021286 0.54774
0.17088 -0.005907 0.55153
0.16995 -0.013773 0.54198
0.17021 -0.019353 0.5447
0.17088 -0.02722 0.54421
0.17151 -0.032976 0.54847
0.1716 -0.040895 0.548
0.1726 -0.046866 0.55215
0.17204 -0.054667 0.55114
0.17284 -0.060351 0.55017
0.17375 -0.06908 0.5552
0.17451 -0.075271 0.55899
0.17645 -0.083871 0.56401
0.17698 -0.090444 0.56454
0.1793 -0.099699 0.57131
0.18054 -0.10737 0.58043
0.18457 -0.1161 0.58827
0.18973 -0.12642 0.60458
0.20374 -0.14529 0.65416
0.2533 -0.18831 0.80549
0.26914 -0.21435 0.86252
0.2795 -0.2304 0.89183
0.28319 -0.24719 0.91065
0.29447 -0.2675 0.93875
0.28554 -0.27203 0.91394
0.28902 -0.28613 0.92488
0.29435 -0.30459 0.94747
0.28892 -0.31013 0.92815
0.29121 -0.32133 0.93119
0.29154 -0.33291 0.92727
0.29648 -0.3524 0.94618
0.28997 -0.35607 0.93565
0.28512 -0.36214 0.91446
0.28836 0.36909 0.95307
0.28962 0.35693 0.96278
0.28997 0.34779 0.96575
0.2898 0.33374 0.96364
0.28967 0.32453 0.96618
0.28999 0.30703 0.96123
0.28357 0.29162 0.9454
0.28158 0.27886 0.93915
0.27975 0.2694 0.937
0.27781 0.2508 0.92762
0.27495 0.24138 0.91787
0.27285 0.22459 0.91353
0.27327 0.21563 0.91552
0.27498 0.20447 0.93073
0.28499 0.19947 0.95382
0.28037 0.18523 0.95319
0.25883 0.16124 0.8659
0.21817 0.12582 0.7276
0.18921 0.10243 0.63225
0.18334 0.09007 0.60873
0.18286 0.083796 0.60859
0.18284 0.075197 0.60974
0.18299 0.068822 0.61029
0.17606 0.058034 0.58739
0.17205 0.051066 0.57688
0.17062 0.042003 0.5686
0.17042 0.035689 0.55844
0.16691 0.027293 0.5562
0.16513 0.021321 0.54859
0.16375 0.013295 0.54387
0.16357 0.0075907 0.54338
0.16297 -0.00020082 0.54015
0.16297 -0.0058214 0.53934
0.1624 -0.013581 0.53846
0.16236 -0.019185 0.5383
0.16228 -0.026926 0.5395
0.16269 -0.032607 0.53984
0.16339 -0.040579 0.54036
0.16383 -0.046332 0.5439
0.16386 -0.054097 0.54521
0.16371 -0.059836 0.54484
0.16347 -0.067648 0.54485
0.1654 -0.074109 0.54986
0.16575 -0.082512 0.55368
0.16796 -0.088329 0.55578
0.16909 -0.097103 0.56026
0.17138 -0.10413 0.57225
0.17409 -0.11584 0.58093
0.18293 -0.12682 0.60656
0.21551 -0.16105 0.7236
0.26024 -0.20316 0.86794
0.27125 -0.22451 0.90672
0.28245 -0.24268 0.93948
0.28458 -0.25909 0.95231
0.28428 -0.2691 0.95241
0.28583 -0.28226 0.9535
0.28509 -0.29198 0.95408
0.28404 -0.30446 0.95044
0.28298 -0.31341 0.94772
0.28046 -0.3232 0.93295
0.28104 -0.3339 0.93123
0.28054 -0.35057 0.94149
0.28491 -0.36352 0.94716
0.28351 -0.37572 0.95045
0.2881 0.38221 1.0041
0.28722 0.36962 1.0056
0.28706 0.35928 0.9977
0.28826 0.34511 1.0019
0.28771 0.33444 1.0023
0.28553 0.31788 0.99795
0.28586 0.30639 0.99667
0.28149 0.28916 0.97112
0.27729 0.27569 0.96126
0.27615 0.2608 0.96395
0.27389 0.24998 0.96098
0.27232 0.23336 0.94967
0.27292 0.22382 0.95175
0.27473 0.21097 0.96547
0.27679 0.20483 0.97018
0.27746 0.18942 0.97271
0.26508 0.17464 0.93277
0.24956 0.1495 0.87066
0.21032 0.11884 0.73107
0.1932 0.099042 0.66904
0.17671 0.084142 0.61151
0.17593 0.075314 0.61159
0.16736 0.065641 0.58142
0.16529 0.056669 0.5782
0.16192 0.049637 0.56272
0.16046 0.041204 0.55429
0.15757 0.035011 0.55317
0.15701 0.026673 0.5455
0.15696 0.020983 0.54437
0.15572 0.013144 0.54198
0.15551 0.0075014 0.5376
0.15439 -0.00019004 0.53548
0.15424 -0.0057534 0.53575
0.15411 -0.013441 0.53532
0.15418 -0.019002 0.53546
0.15418 -0.026673 0.53576
0.15411 -0.032269 0.53569
0.15423 -0.039935 0.53562
0.15453 -0.045505 0.53762
0.15549 -0.053417 0.53764
0.15608 -0.05899 0.54067
0.15591 -0.066988 0.53984
0.1559 -0.072838 0.54003
0.15693 -0.080973 0.545
0.15821 -0.087198 0.55096
0.15947 -0.096338 0.55616
0.16098 -0.10258 0.55787
0.16279 -0.11139 0.56255
0.16726 -0.1209 0.5784
0.19484 -0.15097 0.67945
0.25134 -0.20382 0.87303
0.27245 -0.23413 0.94459
0.28013 -0.25167 0.97171
0.28418 -0.26901 0.98631
0.2848 -0.27954 0.98922
0.28382 -0.29432 0.98747
0.28475 -0.30381 0.9891
0.28369 -0.31795 0.99009
0.28253 -0.32667 0.98725
0.28116 -0.33941 0.97821
0.28005 -0.34854 0.97225
0.27888 -0.36248 0.96804
0.28047 -0.37366 0.98008
0.281 -0.38597 0.97562
0.28301 0.39776 1.0232
0.28261 0.38467 1.0266
0.28317 0.37039 1.0298
0.28408 0.3546 1.0342
0.28263 0.34473 1.0319
0.28005 0.32567 1.0176
0.27766 0.3142 1.0162
0.27678 0.2983 1.0174
0.27511 0.2849 0.99834
0.27003 0.26407 0.97871
0.26714 0.25257 0.98087
0.26683 0.2389 0.97291
0.26625 0.22828 0.96629
0.2677 0.21557 0.9712
0.26827 0.2062 0.97386
0.26897 0.19276 0.97641
0.26702 0.18034 0.97223
0.25464 0.15961 0.9378
0.23658 0.1399 0.87063
0.18906 0.10131 0.68391
0.17281 0.086223 0.62898
0.15986 0.071693 0.57886
0.15755 0.064862 0.57126
0.15535 0.055252 0.56275
0.15232 0.048799 0.55499
0.15047 0.040496 0.54812
0.1504 0.03449 0.54258
0.14899 0.026544 0.54006
0.14819 0.020867 0.53885
0.14785 0.013109 0.53576
0.14786 0.0075185 0.53443
0.14637 -0.00017977 0.53362
0.14635 -0.0056928 0.53348
0.1463 -0.013313 0.53335
0.1462 -0.018825 0.53231
0.14629 -0.026428 0.53161
0.14637 -0.031937 0.53172
0.14638 -0.039542 0.53188
0.1466 -0.045275 0.53204
0.14801 -0.052955 0.53413
0.14797 -0.058553 0.5361
0.14827 -0.066548 0.53553
0.14816 -0.072259 0.53653
0.14875 -0.079957 0.53878
0.14969 -0.086352 0.54286
0.15108 -0.094325 0.54618
0.15138 -0.10096 0.54611
0.15322 -0.10991 0.55312
0.15553 -0.11735 0.56285
0.16025 -0.12925 0.57856
0.18649 -0.1575 0.6777
0.26521 -0.23974 0.96381
0.27637 -0.25728 0.99799
0.28538 -0.28074 1.0296
0.28833 -0.29462 1.0499
0.28833 -0.31137 1.0531
0.28984 -0.32523 1.0541
0.28876 -0.33912 1.05
0.28736 -0.34806 1.045
0.28623 -0.35845 1.0405
0.28538 -0.36809 1.0373
0.28119 -0.3782 1.0128
0.28031 -0.38755 1.0095
0.28692 -0.41274 1.0332
0.2805 0.41104 1.0679
0.2803 0.39321 1.0674
0.28118 0.38342 1.0704
0.2836 0.37023 1.0749
0.28444 0.3602 1.0796
0.28277 0.34555 1.0839
0.28002 0.32597 1.0539
0.27541 0.3089 1.0443
0.27424 0.29813 1.0467
0.27221 0.27765 1.0293
0.26753 0.26448 1.0106
0.26585 0.24795 1.0033
0.26213 0.23716 0.99514
0.2626 0.22294 0.99805
0.26313 0.21224 0.99743
0.26335 0.19841 1.0099
0.26383 0.18836 1.0124
0.25128 0.16625 0.9725
0.23021 0.14161 0.88046
0.16777 0.094365 0.6358
0.15248 0.07966 0.57931
0.15076 0.070366 0.57185
0.14759 0.063144 0.56055
0.14568 0.054215 0.555
0.14313 0.048039 0.54786
0.14309 0.039878 0.54099
0.14227 0.034135 0.54006
0.14172 0.026444 0.53842
0.1408 0.020637 0.53332
0.14045 0.012983 0.5325
0.1403 0.0074593 0.53211
0.14 -0.0001719 0.53216
0.13979 -0.0056765 0.53085
0.13961 -0.013266 0.52958
0.13967 -0.018749 0.5289
0.1395 -0.026324 0.52859
0.13953 -0.031802 0.52831
0.13945 -0.039364 0.52983
0.14005 -0.044987 0.52968
0.14026 -0.052589 0.53051
0.14055 -0.058385 0.53112
0.14093 -0.066056 0.53212
0.14098 -0.071732 0.53456
0.14115 -0.079601 0.53451
0.1415 -0.085371 0.53749
0.14179 -0.093308 0.53806
0.14357 -0.10002 0.54353
0.14423 -0.108 0.54346
0.14589 -0.11532 0.54945
0.14782 -0.12493 0.55777
0.15294 -0.1354 0.57971
0.17855 -0.16784 0.67996
0.26995 -0.2641 1.0265
0.27925 -0.28795 1.0627
0.28153 -0.30307 1.0715
0.28873 -0.32406 1.0932
0.2902 -0.33945 1.1018
0.28964 -0.35358 1.1014
0.28932 -0.36395 1.0982
0.28425 -0.37685 1.0791
0.28306 -0.38381 1.0719
0.28038 -0.3947 1.0637
0.2795 -0.40445 1.0602
0.28027 -0.42186 1.0596
0.27426 0.41646 1.1045
0.27713 0.40814 1.1095
0.27933 0.39978 1.1113
0.28056 0.38553 1.124
0.28165 0.3751 1.1194
0.28251 0.35636 1.1166
0.27654 0.34101 1.1046
0.27309 0.31951 1.0861
0.26896 0.30549 1.0782
0.2662 0.28782 1.0597
0.2662 0.27411 1.0529
0.26027 0.25636 1.0543
0.26085 0.24569 1.0451
0.26233 0.2315 1.0482
0.264 0.2239 1.0539
0.26781 0.20954 1.0618
0.2673 0.19696 1.0637
0.25281 0.17485 1.0176
0.16116 0.10385 0.64288
0.14566 0.085797 0.58019
0.14396 0.078637 0.57252
0.13989 0.068825 0.56021
0.1388 0.062193 0.55126
0.13679 0.05373 0.54691
0.13613 0.047576 0.54146
0.13552 0.039622 0.53907
0.134 0.03386 0.53542
0.13392 0.026132 0.53361
0.13357 0.020578 0.53059
0.13364 0.01295 0.53033
0.13352 0.007406 0.52822
0.13311 -0.00016344 0.52834
0.13311 -0.0056391 0.52831
0.13309 -0.013219 0.52875
0.13285 -0.018671 0.52711
0.13278 -0.026209 0.5266
0.13272 -0.031664 0.52632
0.13261 -0.039236 0.52734
0.13271 -0.044787 0.52935
0.13262 -0.052462 0.52869
0.13325 -0.057927 0.52884
0.13341 -0.065605 0.53097
0.13402 -0.071357 0.53117
0.13448 -0.079294 0.531
0.13453 -0.084897 0.53283
0.13503 -0.092978 0.536
0.13527 -0.098824 0.53726
0.13623 -0.10698 0.54165
0.13715 -0.11376 0.54396
0.13812 -0.12294 0.54946
0.14111 -0.13074 0.55814
0.1471 -0.14509 0.58683
0.18299 -0.18768 0.72507
0.26949 -0.29155 1.0698
0.27713 -0.31032 1.1002
0.2788 -0.32988 1.1079
0.2789 -0.34104 1.1088
0.27905 -0.35685 1.1114
0.27826 -0.36862 1.1104
0.27658 -0.38298 1.1058
0.27479 -0.39169 1.0842
0.2699 -0.40131 1.0738
0.27099 -0.41122 1.0759
0.2719 -0.42749 1.0739
0.26895 0.43305 1.1372
0.27229 0.42434 1.1442
0.27424 0.41379 1.1486
0.2754 0.39666 1.1535
0.27443 0.3852 1.1444
0.27104 0.3663 1.1468
0.27054 0.35179 1.1253
0.26498 0.33065 1.1165
0.26223 0.31441 1.1056
0.26216 0.29498 1.0907
0.26156 0.28441 1.082
0.25858 0.2679 1.0855
0.25916 0.25723 1.0938
0.26204 0.24563 1.1075
0.26997 0.23825 1.1255
0.26952 0.22274 1.1285
0.25601 0.19922 1.0678
0.19307 0.13816 0.81677
0.13989 0.095003 0.5845
0.13738 0.084972 0.57337
0.13325 0.077178 0.56079
0.13199 0.067833 0.55046
0.13055 0.061712 0.54766
0.12952 0.053426 0.54183
0.12882 0.047305 0.53892
0.12769 0.039482 0.5349
0.12738 0.033774 0.53145
0.1274 0.025986 0.53138
0.12673 0.020491 0.529
0.12647 0.012916 0.52884
0.1263 0.0073926 0.52543
0.12652 -0.00015523 0.52834
0.1264 -0.005612 0.52731
0.12638 -0.013146 0.52718
0.12596 -0.018591 0.52588
0.12583 -0.026108 0.52557
0.12584 -0.03156 0.52653
0.12595 -0.039089 0.52622
0.12612 -0.04464 0.52719
0.1263 -0.052363 0.52793
0.1262 -0.057864 0.52748
0.12622 -0.065375 0.52665
0.12692 -0.071083 0.52976
0.12747 -0.07887 0.53134
0.1273 -0.084534 0.53101
0.12724 -0.092007 0.5305
0.12845 -0.098404 0.53629
0.12853 -0.10626 0.53738
0.12961 -0.11267 0.54208
0.1303 -0.12167 0.54639
0.13152 -0.12834 0.54951
0.13455 -0.13872 0.56003
0.14004 -0.15122 0.58701
0.17699 -0.20199 0.73851
0.26461 -0.31269 1.103
0.26654 -0.33071 1.1108
0.27226 -0.35112 1.1421
0.27511 -0.37004 1.1474
0.27674 -0.38218 1.1557
0.27563 -0.39765 1.1537
0.27414 -0.40833 1.1501
0.27055 -0.42119 1.1353
0.26638 -0.4257 1.1254
0.26519 -0.43969 1.1202
0.26516 0.45088 1.1696
0.26773 0.43608 1.1816
0.26858 0.42408 1.1864
0.26972 0.41137 1.1915
0.26835 0.39776 1.1925
0.26456 0.37766 1.1613
0.26142 0.3589 1.1599
0.26107 0.3389 1.1436
0.25941 0.32386 1.1393
0.25748 0.30711 1.1403
0.25688 0.29612 1.1372
0.25771 0.28086 1.1409
0.26087 0.27191 1.1504
0.26373 0.25714 1.1687
0.26534 0.24785 1.1736
0.25763 0.22602 1.15
0.21517 0.17811 0.94476
0.13661 0.10439 0.6039
0.13066 0.093501 0.58014
0.12848 0.083437 0.56685
0.12568 0.076324 0.55265
0.12439 0.067396 0.54848
0.12308 0.061343 0.5425
0.12247 0.052966 0.53863
0.12107 0.047007 0.53574
0.12099 0.039298 0.53199
0.12054 0.033632 0.53154
0.12039 0.026015 0.52935
0.11989 0.020451 0.52651
0.11965 0.012889 0.52608
0.11953 0.0073824 0.52588
0.11955 -0.00014804 0.52548
0 0 -1
0 0 -1
0 0 -1
0 0 -1
0 0 -1
0 0 -1
0 0 -1
0 0 -1
0 0 -1
0 0 -1
0 0 -1
0 0 -1
0.12015 -0.08394 0.52972
0.1199 -0.091316 0.52854
0.1197 -0.096627 0.52764
0.1218 -0.10609 0.53479
0.12209 -0.1119 0.53823
0.12295 -0.12038 0.54194
0.12394 -0.12752 0.54714
0.12532 -0.13657 0.5544
0.12823 -0.14599 0.56268
0.13393 -0.16112 0.58899
0.2518 -0.31344 1.1038
0.25976 -0.34098 1.1481
0.26844 -0.36415 1.1801
0.2678 -0.38071 1.1777
0.2689 -0.39373 1.1816
0.27268 -0.41447 1.2012
0.27186 -0.42559 1.1975
0.26797 -0.43994 1.1799
0.26712 -0.4466 1.1731
0.26734 -0.46127 1.1676
0.25695 0.46211 1.2004
0.25874 0.44695 1.2102
0.26137 0.44026 1.2155
0.26303 0.4246 1.2244
0.26382 0.41036 1.2281
0.25972 0.38606 1.2122
0.25556 0.37301 1.2055
0.25414 0.3485 1.189
0.25128 0.33577 1.1811
0.25155 0.31986 1.1853
0.25217 0.30864 1.1884
0.25506 0.29542 1.1936
0.26114 0.28722 1.2121
0.25982 0.26696 1.2157
0.25658 0.25048 1.1987
0.25242 0.23229 1.1796
0.13711 0.11931 0.63949
0.12563 0.10043 0.58326
0.1222 0.092307 0.56803
0.11974 0.082331 0.55686
0.11799 0.075287 0.55154
0.1169 0.067078 0.5445
0.1154 0.060703 0.53937
0.11477 0.052862 0.5383
0.11465 0.046991 0.53276
0.11429 0.039207 0.5321
0.11392 0.033622 0.5288
0.11353 0.025946 0.5272
0.11322 0.020429 0.52647
0.11303 0.012845 0.5267
0.11252 0.0073607 0.52349
0 0 -1
0 0 -1
0 0 -1
0 0 -1
0 0 -1
0 0 -1
0 0 -1
0 0 -1
0 0 -1
0 0 -1
0 0 -1
0 0 -1
0 0 -1
0 0 -1
0 0 -1
0 0 -1
0 0 -1
0.11534 -0.11176 0.53506
0.11592 -0.12005 0.53802
0.11641 -0.12683 0.54228
0.11825 -0.1353 0.54859
0.11997 -0.14345 0.5552
0.12235 -0.1547 0.56661
0.15378 -0.2021 0.71497
0.25414 -0.3536 1.1842
0.25622 -0.3677 1.1866
0.25718 -0.38605 1.1919
0.26035 -0.4021 1.2136
0.26196 -0.42245 1.2196
0.26117 -0.43422 1.2174
0.26013 -0.45054 1.2122
0.26176 -0.46705 1.217
0.26339 -0.48535 1.2202
0.24755 0.46809 1.2274
0.24949 0.45599 1.233
0.25139 0.44631 1.2468
0.25268 0.43265 1.2542
0.25323 0.42097 1.2575
0.25171 0.4008 1.2444
0.24886 0.38176 1.237
0.2467 0.3637 1.2282
0.24702 0.34915 1.2284
0.24823 0.33286 1.2264
0.24942 0.32224 1.2295
0.25136 0.30904 1.242
0.25193 0.29548 1.2496
0.24905 0.27129 1.2265
0.24619 0.25562 1.2271
0.20071 0.19796 1.0069
0.11895 0.10935 0.58897
0.11682 0.099639 0.57855
0.11345 0.091422 0.55721
0.1118 0.081467 0.55412
0.11039 0.074911 0.54494
0.1096 0.066362 0.54004
0.10906 0.060711 0.53882
0.10834 0.052731 0.53472
0.1079 0.046916 0.53322
0.10759 0.039182 0.53122
0.10699 0.033559 0.52737
0.10688 0.025951 0.52649
0.10659 0.020392 0.52624
0.10631 0.012819 0.52466
0 0 -1
0 0 -1
0 0 -1
0 0 -1
0 0 -1
0 0 -1
0 0 -1
0 0 -1
0 0 -1
0 0 -1
0 0 -1
0 0 -1
0 0 -1
0 0 -1
0 0 -1
0 0 -1
0 0 -1
0 0 -1
0 0 -1
0.10878 -0.11954 0.53498
0.10954 -0.12606 0.53967
0.11043 -0.13453 0.54444
0.11229 -0.14225 0.55334
0.11381 -0.15219 0.56255
0.12129 -0.16959 0.59909
0.18629 -0.27155 0.9159
0.24411 -0.37107 1.1993
0.24832 -0.39416 1.2254
0.25134 -0.41462 1.2412
0.25459 -0.43135 1.2516
0.25466 -0.45318 1.2614
0.25362 -0.46934 1.2558
0.25682 -0.48289 1.2664
0.25566 -0.49873 1.2605
0.23495 0.47566 1.2333
0.23746 0.46012 1.2473
0.24025 0.45531 1.2718
0.24286 0.44053 1.2774
0.24359 0.42864 1.2781
0.2412 0.40942 1.2699
0.23827 0.39008 1.2617
0.23796 0.37115 1.2604
0.23832 0.35839 1.2638
0.23917 0.34238 1.2683
0.24164 0.33317 1.2738
0.24243 0.31596 1.2789
0.24264 0.30176 1.2677
0.24074 0.27903 1.2649
0.23015 0.25618 1.2298
0.12996 0.13377 0.68426
0.11157 0.10921 0.5873
0.10838 0.098032 0.56819
0.1058 0.08942 0.55511
0.10467 0.080829 0.54619
0.10328 0.074572 0.54192
0.10269 0.06639 0.54071
0.10215 0.060478 0.53516
0.10165 0.052567 0.53457
0.10122 0.046844 0.53023
0.10074 0.039088 0.52891
0.10058 0.033486 0.5268
0.10035 0.025899 0.52634
0.10012 0.02037 0.52564
0 0 -1
0 0 -1
0 0 -1
0 0 -1
0 0 -1
0 0 -1
0 0 -1
0 0 -1
0 0 -1
0 0 -1
0 0 -1
0 0 -1
0 0 -1
0 0 -1
0 0 -1
0 0 -1
0 0 -1
0 0 -1
0 0 -1
0 0 -1
0 0 -1
0.10294 -0.12552 0.53731
0.10337 -0.13404 0.54245
0.10479 -0.14157 0.54783
0.10589 -0.15135 0.55487
0.11022 -0.16384 0.57765
0.12797 -0.19939 0.67099
0.23483 -0.37882 1.2329
0.24422 -0.41189 1.274
0.24595 -0.42792 1.2876
0.24767 -0.44755 1.2953
0.24885 -0.46413 1.2999
0.24894 -0.48768 1.3086
0.24956 -0.49969 1.3095
0.24903 -0.51382 1.3033
0.22238 0.4784 1.2515
0.22505 0.46919 1.272
0.23051 0.46405 1.2852
0.23175 0.44756 1.3019
0.23219 0.435 1.3058
0.23133 0.41735 1.3028
0.2286 0.39947 1.2898
0.22853 0.3809 1.2948
0.22914 0.36711 1.2982
0.23003 0.34828 1.3075
0.2306 0.33514 1.2972
0.22984 0.31707 1.2937
0.22828 0.30358 1.2845
0.22585 0.27961 1.2705
0.17466 0.20467 0.97305
0.10608 0.11685 0.5941
0.10278 0.10777 0.57638
0.10036 0.097026 0.56345
0.098642 0.089527 0.54998
0.097062 0.080429 0.54427
0.096258 0.074241 0.54095
0.095756 0.066099 0.53786
0.095346 0.060473 0.53497
0.095221 0.052461 0.53363
0.094404 0.046717 0.5309
0.094301 0.039035 0.52872
0.094075 0.033522 0.52707
0.093888 0.025839 0.52646
0 0 -1
0 0 -1
0 0 -1
0 0 -1
0 0 -1
0 0 -1
0 0 -1
0 0 -1
0 0 -1
0 0 -1
0 0 -1
0 0 -1
0 0 -1
0 0 -1
0 0 -1
0 0 -1
0 0 -1
0 0 -1
0 0 -1
0 0 -1
0 0 -1
0 0 -1
0.096318 -0.12569 0.5372
0.096419 -0.134 0.54179
0.097603 -0.14084 0.54517
0.098863 -0.14965 0.55556
0.10111 -0.15966 0.56459
0.10573 -0.17684 0.59312
0.22404 -0.38732 1.2565
0.23139 -0.41653 1.294
0.23684 -0.44194 1.3276
0.2378 -0.46221 1.3299
0.2381 -0.47755 1.3344
0.23839 -0.49584 1.3368
0.24073 -0.51125 1.3433
0.23964 -0.53245 1.3369
0.21149 0.4899 1.2796
0.21477 0.47669 1.2876
0.21755 0.47019 1.312
0.21925 0.45357 1.3304
0.21991 0.44134 1.3345
0.22062 0.42206 1.3252
0.21687 0.4059 1.3127
0.21609 0.38674 1.308
0.21483 0.37226 1.3078
0.21609 0.35294 1.3113
0.21595 0.33577 1.3083
0.21495 0.31739 1.2956
0.21202 0.30416 1.2786
0.20799 0.27908 1.27
0.11573 0.14825 0.69449
0.097123 0.11536 0.58387
0.094627 0.10655 0.57158
0.092943 0.09603 0.55359
0.091714 0.088991 0.54909
0.090275 0.079967 0.54399
0.089541 0.074372 0.54028
0.089192 0.066098 0.53541
0.08889 0.060184 0.53393
0.088345 0.052536 0.53195
0.087953 0.046568 0.52846
0.08795 0.039051 0.52857
0.087516 0.033385 0.52711
0 0 -1
0 0 -1
0 0 -1
0 0 -1
0 0 -1
0 0 -1
0 0 -1
0 0 -1
0 0 -1
0 0 -1
0 0 -1
0 0 -1
0 0 -1
0 0 -1
0 0 -1
0 0 -1
0 0 -1
0 0 -1
0 0 -1
0 0 -1
0 0 -1
0 0 -1
0 0 -1
0.089201 -0.12486 0.53604
0.08973 -0.13337 0.53821
0.090608 -0.13997 0.54385
0.091401 -0.14917 0.54951
0.092911 -0.1577 0.56108
0.096127 -0.17119 0.57697
0.15422 -0.28325 0.92502
0.22177 -0.43013 1.334
0.22539 -0.44978 1.3492
0.2266 -0.47164 1.3684
0.22792 -0.48835 1.3681
0.22809 -0.50722 1.3646
0.22872 -0.525 1.3707
0.22921 -0.5427 1.3849
0.19634 0.49218 1.2839
0.20216 0.48307 1.3121
0.20693 0.47864 1.3397
0.2089 0.46313 1.3542
0.20953 0.45348 1.3651
0.20738 0.43321 1.358
0.20542 0.41183 1.3329
0.20191 0.38938 1.3111
0.20002 0.3729 1.3112
0.20021 0.35355 1.3075
0.19775 0.33525 1.2936
0.19644 0.31732 1.2779
0.19256 0.29668 1.2713
0.18923 0.27274 1.2393
0.093931 0.12987 0.61506
0.089722 0.11492 0.5828
0.087651 0.10592 0.56736
0.085723 0.095775 0.55107
0.084305 0.088872 0.54861
0.083649 0.080104 0.54085
0.083033 0.074087 0.53888
0.082579 0.06583 0.53497
0.082024 0.060228 0.533
0.081988 0.052249 0.53058
0.081581 0.046621 0.52945
0.081392 0.038914 0.52867
0.081213 0.033375 0.52573
0 0 -1
0 0 -1
0 0 -1
0 0 -1
0 0 -1
0 0 -1
0 0 -1
0 0 -1
0 0 -1
0 0 -1
0 0 -1
0 0 -1
0 0 -1
0 0 -1
0 0 -1
0 0 -1
0 0 -1
0 0 -1
0 0 -1
0 0 -1
0 0 -1
0 0 -1
0 0 -1
0 0 -1
0.083215 -0.13349 0.53888
0.084114 -0.14015 0.5423
0.084541 -0.14939 0.54769
0.085615 -0.1576 0.55864
0.087795 -0.16979 0.56929
0.10831 -0.21462 0.70004
0.20594 -0.43084 1.3363
0.21155 -0.45616 1.3766
0.21879 -0.48915 1.4078
0.21818 -0.50511 1.4177
0.21925 -0.5296 1.4192
0.21869 -0.54282 1.4209
0.2177 -0.5606 1.4141
0.1857 0.50015 1.3084
0.19033 0.49155 1.3459
0.19364 0.48601 1.3605
0.19542 0.47604 1.3816
0.19843 0.46725 1.399
0.19515 0.43751 1.3734
0.18955 0.41362 1.3435
0.18408 0.38289 1.3097
0.18236 0.37023 1.277
0.18203 0.34553 1.2814
0.17725 0.3261 1.2513
0.17369 0.30795 1.2551
0.17384 0.2899 1.2376
0.15702 0.24684 1.1032
0.083477 0.1241 0.58904
0.082535 0.11467 0.58358
0.080507 0.10479 0.56312
0.078375 0.09468 0.55116
0.077514 0.088756 0.54262
0.076706 0.080146 0.54065
0.076417 0.074001 0.53809
0.075665 0.06587 0.53481
0.075593 0.060213 0.53183
0.075391 0.052184 0.53027
0.0748 0.046575 0.529
0.074887 0.038886 0.52628
0.074785 0.033375 0.52519
0 0 -1
0 0 -1
0 0 -1
0 0 -1
0.073509 -0.00010851 0.51961
0 0 -1
0 0 -1
0 0 -1
0 0 -1
0 0 -1
0 0 -1
0 0 -1
0 0 -1
0 0 -1
0 0 -1
0 0 -1
0 0 -1
0 0 -1
0 0 -1
0 0 -1
0 0 -1
0 0 -1
0 0 -1
0 0 -1
0 0 -1
0.076847 -0.13943 0.54057
0.077984 -0.14851 0.54674
0.078882 -0.15622 0.55348
0.080668 -0.16815 0.56664
0.090183 -0.19513 0.63471
0.18702 -0.42511 1.3145
0.20277 -0.47158 1.4161
0.20713 -0.50438 1.4547
0.20805 -0.5221 1.4685
0.2086 -0.54615 1.4655
0.20853 -0.55998 1.4672
0.20759 -0.5833 1.4688
0.16836 0.49616 1.3126
0.1768 0.49904 1.358
0.17866 0.49505 1.3777
0.18119 0.48087 1.3967
0.18343 0.4717 1.4132
0.18418 0.45347 1.4191
0.16796 0.40039 1.3066
0.1481 0.33862 1.1393
0.14507 0.31512 1.1308
0.14377 0.30044 1.1169
0.14153 0.28769 1.1197
0.142 0.27319 1.1235
0.14055 0.26075 1.1015
0.11234 0.19425 0.8743
0.076456 0.12429 0.58996
0.075016 0.11322 0.57684
0.073066 0.10472 0.55873
0.071783 0.094827 0.54892
0.070965 0.088485 0.54347
0.070026 0.079816 0.53989
0.069922 0.073826 0.53689
0.069241 0.065835 0.53516
0.06919 0.060159 0.53179
0.068907 0.05232 0.53112
0.068509 0.046523 0.52663
0.068446 0.03886 0.52567
0.068407 0.033361 0.5248
0 0 -1
0 0 -1
0.0673 0.01273 0.5203
0.067674 0.0073516 0.52158
0.067658 -0.00010495 0.5208
0.067566 -0.0055055 0.52106
0.067215 -0.012904 0.51837
0 0 -1
0 0 -1
0 0 -1
0 0 -1
0 0 -1
0 0 -1
0 0 -1
0 0 -1
0 0 -1
0 0 -1
0 0 -1
0 0 -1
0 0 -1
0 0 -1
0 0 -1
0 0 -1
0 0 -1
0 0 -1
0.070373 -0.13954 0.54114
0.070941 -0.14865 0.5455
0.072076 -0.15644 0.554
0.073577 -0.16796 0.56523
0.080146 -0.18946 0.61791
0.15711 -0.38719 1.2053
0.19049 -0.48621 1.4632
0.20032 -0.53299 1.5377
0.20091 -0.5487 1.5388
0.20064 -0.57129 1.5373
0.20003 -0.58733 1.539
0.20002 -0.60957 1.5387
0.15504 0.50145 1.3169
0.1605 0.50418 1.3662
0.16219 0.49568 1.3831
0.16449 0.48149 1.3995
0.16681 0.47393 1.4224
0.16748 0.45561 1.4283
0.13393 0.35405 1.1364
0.12655 0.32318 1.0975
0.11503 0.2745 0.98285
0.10716 0.24754 0.92944
0.10424 0.23022 0.88211
0.10242 0.21746 0.87082
0.10167 0.20642 0.87275
0.08778 0.16578 0.75488
0.069922 0.12612 0.5962
0.066422 0.11129 0.56693
0.065926 0.10477 0.55953
0.06486 0.094963 0.54971
0.064092 0.088562 0.54425
0.063508 0.07983 0.54162
0.063473 0.073916 0.5368
0.062798 0.065862 0.53644
0.062632 0.060253 0.53256
0.062158 0.052244 0.53123
0.062061 0.046592 0.5274
0.062039 0.038804 0.52521
0.061653 0.033213 0.52454
0 0 -1
0 0 -1
0.061393 0.012752 0.52107
0.061414 0.0073615 0.52152
0.06135 -0.00010123 0.52122
0.06132 -0.0055066 0.52183
0.061121 -0.012923 0.51997
0.061001 -0.018209 0.51981
0 0 -1
0 0 -1
0 0 -1
0 0 -1
0 0 -1
0 0 -1
0 0 -1
0 0 -1
0 0 -1
0 0 -1
0 0 -1
0 0 -1
0 0 -1
0 0 -1
0 0 -1
0 0 -1
0 0 -1
0 0 -1
0.064391 -0.14873 0.54537
0.065427 -0.15672 0.55477
0.066751 -0.16765 0.56475
0.072569 -0.18886 0.61713
0.13532 -0.36959 1.1472
0.1826 -0.51373 1.5465
0.18753 -0.55141 1.5896
0.18829 -0.56819 1.5939
0.18777 -0.58941 1.5901
0.18736 -0.60687 1.5868
0.18662 -0.62672 1.5857
0.14244 0.52179 1.3531
0.1461 0.51142 1.3857
0.14694 0.50008 1.3915
0.15005 0.48819 1.4216
0.15158 0.48023 1.4405
0.15195 0.46146 1.4432
0.14441 0.42322 1.3896
0.11365 0.32357 1.0988
0.1033 0.27483 0.98407
0.093669 0.24314 0.8829
0.091072 0.22249 0.85795
0.080876 0.18976 0.78391
0.078593 0.17614 0.76258
0.077208 0.16347 0.73562
0.062792 0.12627 0.59696
0.059648 0.11143 0.56766
0.059088 0.10423 0.55799
0.05834 0.095084 0.54927
0.057336 0.088574 0.54473
0.057084 0.079743 0.53913
0.056814 0.073816 0.53837
0.056315 0.065928 0.53664
0.056232 0.060242 0.53274
0.055849 0.052467 0.53021
0.055763 0.046655 0.5281
0.055324 0.038658 0.52591
0 0 -1
0 0 -1
0 0 -1
0.054978 0.012765 0.5213
0.055083 0.0073742 0.52186
0.054975 -9.7985e-05 0.52131
0.054975 -0.0054955 0.52128
0.054804 -0.012936 0.52054
0.05481 -0.018293 0.5204
0.054596 0 0.51787
0 0 -1
0 0 -1
0 0 -1
0 0 -1
0 0 -1
0 0 -1
0 0 -1
0 0 -1
0 0 -1
0 0 -1
0 0 -1
0 0 -1
0 0 -1
0 0 -1
0 0 -1
0 0 -1
0 0 -1
0.057812 -0.14831 0.54657
0.058622 -0.15709 0.55424
0.059893 -0.16785 0.56545
0.065343 -0.1898 0.617
0.10979 -0.3343 1.0409
0.16911 -0.53142 1.5984
0.16958 -0.55402 1.5993
0.16937 -0.57091 1.5993
0.16895 -0.59334 1.5971
0.16887 -0.60867 1.5947
0.16852 -0.62882 1.5914
0.1362 0.55552 1.4593
0.13529 0.5321 1.4555
0.13494 0.51362 1.4438
0.13551 0.49542 1.4502
0.1348 0.48691 1.4615
0.13505 0.46811 1.4677
0.13525 0.45064 1.4524
0.12123 0.38962 1.3135
0.10637 0.32439 1.1452
0.085928 0.25812 0.93713
0.077278 0.21606 0.83658
0.069866 0.18762 0.76793
0.069409 0.17434 0.75429
0.068297 0.16304 0.7257
0.055637 0.1259 0.59714
0.053533 0.11278 0.57307
0.052237 0.10356 0.55848
0.051606 0.095186 0.55201
0.050912 0.088563 0.54536
0.05053 0.080024 0.54293
0.050393 0.074097 0.53819
0.05001 0.066021 0.5363
0.049769 0.060316 0.53406
0.049487 0.05248 0.52932
0.049436 0.046706 0.52931
0.049016 0.038705 0.52739
0 0 -1
0 0 -1
0 0 -1
0.048641 0.012775 0.5212
0.048699 0.0073758 0.52197
0.048678 -9.511e-05 0.52136
0.048707 -0.005494 0.52129
0.048555 -0.012888 0.51986
0.048578 -0.018257 0.51931
0.048371 0 0.51679
0 0 -1
0 0 -1
0 0 -1
0 0 -1
0 0 -1
0 0 -1
0 0 -1
0 0 -1
0 0 -1
0 0 -1
0 0 -1
0 0 -1
0 0 -1
0 0 -1
0 0 -1
0 0 -1
0.050804 -0.13975 0.54204
0.051227 -0.14847 0.54718
0.051961 -0.15737 0.5556
0.053073 -0.16802 0.56607
0.057963 -0.19 0.61768
0.097293 -0.33465 1.0421
0.14986 -0.53222 1.6002
0.15032 -0.55635 1.6027
0.15025 -0.57282 1.606
0.15015 -0.59467 1.601
0.1499 -0.60984 1.5974
0.14979 -0.62997 1.5884
0.12156 0.57187 1.5011
0.12235 0.55572 1.5069
0.12345 0.54574 1.5237
0.12525 0.53002 1.5393
0.1262 0.51889 1.5589
0.12771 0.49997 1.5774
0.12501 0.47512 1.5474
0.12076 0.43626 1.4836
0.11219 0.39301 1.4018
0.10338 0.3493 1.2933
0.081408 0.26326 1.0019
0.067532 0.20512 0.84024
0.060457 0.17498 0.74157
0.059488 0.1632 0.72643
0.048511 0.12602 0.59774
0.046687 0.11352 0.57626
0.045225 0.10367 0.55905
0.044811 0.094868 0.55007
0.044343 0.088651 0.54665
0.044063 0.080184 0.54348
0.043873 0.073909 0.53874
0.043555 0.066088 0.53525
0.043439 0.060378 0.53392
0.043103 0.052534 0.53139
0.043131 0.046754 0.5296
0.043077 0.039079 0.52805
0 0 -1
0 0 -1
0 0 -1
0 0 -1
0.042387 0.0073817 0.52185
0.042378 -9.2643e-05 0.52175
0.042309 -0.0054932 0.52149
0.042287 -0.012936 0.52001
0.042291 -0.018298 0.51983
0.042085 -0.02561 0.51733
0 0 -1
0 0 -1
0 0 -1
0 0 -1
0 0 -1
0 0 -1
0 0 -1
0 0 -1
0 0 -1
0 0 -1
0 0 -1
0 0 -1
0 0 -1
0 0 -1
0 0 -1
0 0 -1
0.044331 -0.13988 0.54484
0.044843 -0.14922 0.54922
0.045263 -0.15752 0.55556
0.046294 -0.16999 0.5684
0.050494 -0.19017 0.61828
0.084836 -0.33431 1.0407
0.13067 -0.53269 1.606
0.13092 -0.55684 1.6055
0.13104 -0.57332 1.6076
0.13084 -0.59529 1.6034
0.13063 -0.61068 1.5994
0.13058 -0.63121 1.5978
0.10403 0.5749 1.5011
0.10482 0.56 1.5155
0.10624 0.54991 1.5337
0.10716 0.53365 1.5538
0.10928 0.52696 1.5781
0.11006 0.51027 1.5977
0.11051 0.49735 1.6024
0.11008 0.47269 1.5976
0.1074 0.44401 1.5545
0.10171 0.40353 1.4927
0.097406 0.3654 1.4133
0.089596 0.32231 1.2991
0.057636 0.19713 0.84293
0.051352 0.16504 0.73799
0.04144 0.12696 0.59953
0.039824 0.11404 0.57857
0.038508 0.10449 0.56072
0.038155 0.095361 0.55057
0.038014 0.088726 0.54727
0.037675 0.080252 0.54435
0.037354 0.074176 0.53922
0.037083 0.066145 0.53733
0.036997 0.060431 0.53522
0.036815 0.052532 0.53227
0.036728 0.04683 0.53055
0.036688 0.039175 0.53022
0 0 -1
0 0 -1
0 0 -1
0 0 -1
0 0 -1
0 0 -1
0 0 -1
0 0 -1
0 0 -1
0 0 -1
0 0 -1
0 0 -1
0 0 -1
0 0 -1
0 0 -1
0 0 -1
0 0 -1
0 0 -1
0 0 -1
0 0 -1
0 0 -1
0 0 -1
0 0 -1
0 0 -1
0 0 -1
0 0 -1
0.037764 -0.13999 0.54368
0.038189 -0.14949 0.54969
0.03866 -0.15769 0.55662
0.039509 -0.17012 0.56899
0.043417 -0.19268 0.62713
0.078952 -0.36567 1.138
0.11156 -0.53294 1.6073
0.11152 -0.55653 1.6068
0.11162 -0.5741 1.6078
0.11159 -0.59573 1.6051
0.11138 -0.61168 1.6034
0.11116 -0.63392 1.6004
0.08558 0.57398 1.4968
0.08656 0.56052 1.5165
0.087737 0.55245 1.5361
0.088471 0.5355 1.5563
0.090509 0.53111 1.5903
0.091388 0.51275 1.603
0.091666 0.49882 1.6135
0.091562 0.47823 1.6168
0.091102 0.45773 1.6031
0.088954 0.42363 1.5613
0.084147 0.3894 1.4976
0.080648 0.34679 1.4191
0.074106 0.30972 1.3031
0.046134 0.1793 0.81844
0.03461 0.12812 0.60521
0.032986 0.11419 0.58132
0.032003 0.10504 0.56322
0.031668 0.095596 0.55097
0.031366 0.089001 0.54938
0.031092 0.080456 0.54547
0.03082 0.074158 0.54156
0.030761 0.066212 0.53794
0.030592 0.060482 0.53562
0.030469 0.05257 0.53365
0.030396 0.046903 0.53134
0.030268 0.039205 0.53066
0.030155 0.033472 0.52805
0 0 -1
0 0 -1
0 0 -1
0 0 -1
0 0 -1
0 0 -1
0 0 -1
0 0 -1
0 0 -1
0 0 -1
0 0 -1
0 0 -1
0 0 -1
0 0 -1
0 0 -1
0 0 -1
0 0 -1
0 0 -1
0 0 -1
0 0 -1
0 0 -1
0 0 -1
0 0 -1
0 0 -1
0 0 -1
0.031209 -0.14015 0.5457
0.031521 -0.14988 0.55073
0.032038 -0.1582 0.55939
0.032777 -0.17023 0.57272
0.036535 -0.19552 0.63143
0.06742 -0.37899 1.181
0.092137 -0.53328 1.6084
0.092071 -0.55688 1.6079
0.092183 -0.57446 1.6089
0.092207 -0.59645 1.6082
0.092091 -0.6127 1.6056
0.092006 -0.63478 1.6033
0.067456 0.57422 1.5001
0.068257 0.56117 1.516
0.069343 0.55272 1.5369
0.070305 0.53758 1.5582
0.071631 0.53168 1.5911
0.072064 0.51399 1.6121
0.072596 0.49985 1.6226
0.072777 0.47872 1.6239
0.072153 0.46092 1.6081
0.071256 0.42422 1.5681
0.068217 0.39524 1.5031
0.064623 0.35687 1.446
0.060821 0.31881 1.3523
0.042334 0.20919 0.94727
0.027673 0.13049 0.62014
0.026192 0.11526 0.58498
0.02532 0.10541 0.56465
0.024948 0.095863 0.55588
0.024746 0.08905 0.55222
0.024522 0.080512 0.5456
0.024383 0.074271 0.54196
0.024236 0.066266 0.539
0.024104 0.060518 0.53607
0.023995 0.052622 0.53533
0.023937 0.046931 0.53263
0.023841 0.039228 0.53138
0.023781 0.03358 0.52924
0 0 -1
0 0 -1
0 0 -1
0 0 -1
0 0 -1
0 0 -1
0 0 -1
0 0 -1
0 0 -1
0 0 -1
0 0 -1
0 0 -1
0 0 -1
0 0 -1
0 0 -1
0 0 -1
0 0 -1
0 0 -1
0 0 -1
0 0 -1
0 0 -1
0 0 -1
0 0 -1
0 0 -1
0 0 -1
0.024648 -0.14097 0.54742
0.024881 -0.1504 0.55379
0.02537 -0.15874 0.56027
0.025882 -0.17035 0.57534
0.029714 -0.20225 0.657
0.060943 -0.43512 1.3527
0.072638 -0.53421 1.6105
0.072676 -0.55877 1.6107
0.072757 -0.57502 1.612
0.072715 -0.59757 1.6098
0.072638 -0.61331 1.6098
0.072374 -0.63561 1.6038
0.049416 0.57702 1.5075
0.049899 0.56138 1.5167
0.050609 0.55239 1.5423
0.051455 0.53876 1.5616
0.052472 0.53364 1.5967
0.052996 0.51461 1.6191
0.053344 0.50395 1.6251
0.053525 0.48266 1.6297
0.053066 0.4611 1.6143
0.052067 0.4281 1.5981
0.050114 0.39698 1.5161
0.048284 0.36678 1.4702
0.044444 0.32268 1.358
0.036366 0.2447 1.1143
0.020598 0.13296 0.62582
0.019295 0.11637 0.58829
0.018566 0.10619 0.5669
0.018448 0.096068 0.55883
0.018075 0.090003 0.55155
0.01793 0.080945 0.54704
0.017799 0.075012 0.54418
0.017714 0.066482 0.54003
0.017639 0.060686 0.53897
0.017583 0.052807 0.53692
0.017482 0.047156 0.53446
0.017404 0.039256 0.53349
0.017378 0.033627 0.52972
0 0 -1
0 0 -1
0 0 -1
0 0 -1
0 0 -1
0 0 -1
0 0 -1
0 0 -1
0 0 -1
0 0 -1
0 0 -1
0 0 -1
0 0 -1
0 0 -1
0 0 -1
0 0 -1
0 0 -1
0 0 -1
0 0 -1
0 0 -1
0 0 -1
0 0 -1
0 0 -1
0 0 -1
0.017896 -0.13438 0.5462
0.018105 -0.14119 0.54997
0.018225 -0.15055 0.55462
0.018549 -0.15939 0.56103
0.019244 -0.1731 0.58296
0.022955 -0.21415 0.69686
0.04917 -0.48008 1.4942
0.05322 -0.53501 1.6145
0.053266 -0.55919 1.6136
0.053298 -0.57649 1.6129
0.053293 -0.59866 1.6131
0.053179 -0.61429 1.6114
0.053162 -0.63579 1.6039
0.031275 0.57552 1.5
0.031558 0.56084 1.5161
0.032072 0.55399 1.5428
0.032547 0.5389 1.5635
0.033169 0.53496 1.5972
0.033489 0.519 1.6196
0.033832 0.50418 1.6268
0.033935 0.48328 1.6333
0.033873 0.46121 1.6148
0.033009 0.43179 1.603
0.031621 0.39967 1.5373
0.030633 0.36731 1.487
0.028511 0.32567 1.3859
0.025222 0.27651 1.227
0.013178 0.13436 0.63826
0.012286 0.11701 0.59376
0.011885 0.10788 0.57233
0.011634 0.096449 0.56616
0.011428 0.090093 0.5531
0.011294 0.081295 0.54822
0.011223 0.075032 0.54442
0.011153 0.066608 0.54075
0.011119 0.060821 0.53915
0.011068 0.052863 0.53709
0.011008 0.047288 0.53491
0.01099 0.039349 0.53429
0.010936 0.033734 0.53274
0 0 -1
0 0 -1
0 0 -1
0 0 -1
0 0 -1
0 0 -1
0 0 -1
0 0 -1
0 0 -1
0 0 -1
0 0 -1
0 0 -1
0 0 -1
0 0 -1
0 0 -1
0 0 -1
0 0 -1
0 0 -1
0 0 -1
0 0 -1
0 0 -1
0 0 -1
0 0 -1
0 0 -1
0.011347 -0.13488 0.54863
0.011426 -0.14172 0.55046
0.011578 -0.15223 0.56014
0.011752 -0.1597 0.56692
0.012314 -0.17545 0.59356
0.016632 -0.2457 0.8005
0.033105 -0.51168 1.5915
0.033654 -0.53689 1.6163
0.033751 -0.56079 1.6178
0.033762 -0.57669 1.6141
0.033728 -0.59914 1.6152
0.033734 -0.61506 1.6122
0.033669 -0.63774 1.6049
0.013146 0.57431 1.5034
0.013233 0.5609 1.5187
0.013433 0.55318 1.543
0.013612 0.5389 1.5638
0.013883 0.53383 1.5979
0.014004 0.51906 1.6199
0.014097 0.50592 1.6359
0.014121 0.48454 1.6424
0.014094 0.46546 1.6312
0.013831 0.43313 1.61
0.013259 0.40545 1.5501
0.012724 0.37004 1.5063
0.011995 0.3328 1.4054
0.011136 0.28465 1.2975
0.0057998 0.14406 0.67877
0.00514 0.11981 0.60773
0.0049076 0.10831 0.57562
0.0048029 0.097055 0.56725
0.004709 0.090104 0.55489
0.0046664 0.081342 0.55147
0.0046192 0.07523 0.54548
0.0046032 0.066965 0.54171
0.0045847 0.060992 0.54085
0.0045516 0.052993 0.53825
0.0045282 0.047321 0.53502
0.004525 0.039603 0.53501
0.0044976 0.033763 0.53415
0 0 -1
0 0 -1
0 0 -1
0 0 -1
0 0 -1
0 0 -1
0 0 -1
0 0 -1
0 0 -1
0 0 -1
0 0 -1
0 0 -1
0 0 -1
0 0 -1
0 0 -1
0 0 -1
0 0 -1
0 0 -1
0 0 -1
0 0 -1
0 0 -1
0 0 -1
0 0 -1
0 0 -1
0.0047204 -0.13569 0.5489
0.0047557 -0.14258 0.55272
0.004841 -0.15357 0.56185
0.0049548 -0.16252 0.57435
0.0052515 -0.1789 0.60663
0.0093571 -0.33122 1.0854
0.01397 -0.51817 1.613
0.014061 -0.53757 1.6168
0.014117 -0.56166 1.6187
0.014161 -0.57744 1.6172
0.014164 -0.60016 1.6169
0.014179 -0.61595 1.6132
0.014154 -0.63706 1.6087
-0.0050188 0.57591 1.5014
-0.0050945 0.56111 1.5209
-0.0052183 0.55317 1.5391
-0.0053364 0.53889 1.5638
-0.0054715 0.53284 1.5955
-0.005566 0.5195 1.6191
-0.0056203 0.50536 1.636
-0.0057004 0.48445 1.6444
-0.0057348 0.46752 1.6467
-0.0056669 0.43421 1.6353
-0.0055352 0.40633 1.5592
-0.00533 0.37364 1.5176
-0.0050313 0.33682 1.44
-0.0046983 0.29269 1.3452
-0.0027836 0.16511 0.77694
-0.0021939 0.12101 0.61545
-0.0020969 0.10839 0.5806
-0.0020493 0.097179 0.57287
-0.0020255 0.090825 0.55559
-0.0020157 0.081395 0.55336
-0.0019942 0.075228 0.54921
-0.0019922 0.066993 0.54561
-0.0019866 0.061289 0.54151
-0.0019848 0.053168 0.54023
-0.001973 0.047467 0.53746
-0.00197 0.039652 0.53565
-0.0019693 0.034035 0.53524
0 0 -1
0 0 -1
0 0 -1
0 0 -1
0 0 -1
0 0 -1
0 0 -1
0 0 -1
0 0 -1
0 0 -1
0 0 -1
0 0 -1
0 0 -1
0 0 -1
0 0 -1
0 0 -1
0 0 -1
0 0 -1
0 0 -1
0 0 -1
0 0 -1
0 0 -1
0 0 -1
-0.0019513 -0.12733 0.54645
-0.0019543 -0.1365 0.55046
-0.0019746 -0.14361 0.55761
-0.0019895 -0.15372 0.56251
-0.0020764 -0.16551 0.58781
-0.0022256 -0.1866 0.62927
-0.0050211 -0.44422 1.4488
-0.0055836 -0.52003 1.6192
-0.0055688 -0.53828 1.6223
-0.0055325 -0.5617 1.6197
-0.0055104 -0.57893 1.623
-0.0054601 -0.60066 1.6188
-0.005415 -0.61689 1.6166
-0.0053658 -0.63899 1.6153
-0.02323 0.57547 1.4987
-0.023466 0.56144 1.5208
-0.023889 0.55308 1.5389
-0.024266 0.53881 1.5601
-0.024774 0.53276 1.596
-0.025136 0.51759 1.619
-0.025283 0.50603 1.6358
-0.02557 0.48514 1.6484
-0.025652 0.46873 1.6465
-0.025438 0.44416 1.6352
-0.024843 0.41021 1.5871
-0.023841 0.3773 1.5176
-0.022428 0.34024 1.4607
-0.021079 0.30264 1.3537
-0.014389 0.19499 0.92446
-0.010052 0.12622 0.63876
-0.0092221 0.10973 0.58548
-0.0090432 0.098824 0.57302
-0.0088801 0.091136 0.56661
-0.0087702 0.082312 0.55605
-0.0086641 0.075778 0.54995
-0.0086206 0.06735 0.54685
-0.0086004 0.061344 0.54541
-0.0085589 0.053217 0.54162
-0.008549 0.047563 0.54086
-0.0085235 0.039744 0.53625
-0.0084738 0.034076 0.53535
-0.0084446 0.02636 0.5356
0 0 -1
0 0 -1
0 0 -1
0 0 -1
0 0 -1
0 0 -1
0 0 -1
0 0 -1
0 0 -1
0 0 -1
0 0 -1
0 0 -1
0 0 -1
0 0 -1
0 0 -1
0 0 -1
0 0 -1
0 0 -1
0 0 -1
0 0 -1
0 0 -1
-0.008608 -0.12151 0.54657
-0.0086262 -0.12794 0.54968
-0.0086842 -0.13743 0.55395
-0.0088308 -0.14512 0.56067
-0.0089046 -0.15435 0.56557
-0.0094323 -0.16976 0.60172
-0.010933 -0.20744 0.69948
-0.0251 -0.49457 1.6093
-0.025251 -0.52166 1.6197
-0.025274 -0.53876 1.6261
-0.025221 -0.5637 1.6277
-0.025211 -0.57998 1.6243
-0.025134 -0.60142 1.6202
-0.02507 -0.61744 1.6188
-0.024942 -0.63947 1.6149
-0.041281 0.57475 1.5096
-0.04195 0.56239 1.5291
-0.042501 0.55293 1.5441
-0.043145 0.53862 1.5598
-0.044074 0.53305 1.5956
-0.044669 0.51928 1.6186
-0.045209 0.50568 1.6361
-0.045457 0.48499 1.651
-0.045593 0.46999 1.6558
-0.045745 0.44587 1.6443
-0.044198 0.41329 1.5888
-0.04272 0.38173 1.5542
-0.04035 0.34338 1.4673
-0.037844 0.30611 1.3878
-0.030702 0.23419 1.1051
-0.020023 0.14142 0.72062
-0.016703 0.11249 0.60346
-0.016153 0.099896 0.57948
-0.015799 0.091804 0.56696
-0.015517 0.083089 0.55905
-0.015488 0.076277 0.55325
-0.015289 0.068001 0.55003
-0.015229 0.061661 0.54607
-0.015229 0.053616 0.54464
-0.015139 0.047601 0.54125
-0.015127 0.039873 0.54134
-0.015072 0.03419 0.53889
-0.014988 0.02641 0.53678
-0.014963 0.020814 0.53575
0 0 -1
0 0 -1
0 0 -1
0 0 -1
0 0 -1
0 0 -1
0 0 -1
0 0 -1
0 0 -1
0 0 -1
0 0 -1
0 0 -1
0 0 -1
0 0 -1
0 0 -1
0 0 -1
0 0 -1
0 0 -1
0 0 -1
-0.015167 -0.11295 0.5425
-0.015321 -0.12202 0.55057
-0.015437 -0.12894 0.55265
-0.015537 -0.13798 0.55831
-0.015753 -0.14578 0.56526
-0.016091 -0.15729 0.58008
-0.017756 -0.17945 0.63814
-0.026717 -0.28612 0.9655
-0.044966 -0.49861 1.6234
-0.045115 -0.52326 1.6263
-0.045047 -0.54099 1.627
-0.045041 -0.56473 1.6286
-0.044984 -0.58063 1.6271
-0.044862 -0.60238 1.6227
-0.044742 -0.6185 1.6206
-0.044502 -0.64102 1.6189
-0.059441 0.57685 1.4984
-0.06034 0.56109 1.5285
-0.061086 0.5527 1.5435
-0.062029 0.53839 1.5636
-0.063737 0.53463 1.6063
-0.064249 0.51655 1.6206
-0.064959 0.50567 1.6355
-0.065731 0.48821 1.6527
-0.065795 0.47408 1.6567
-0.065987 0.45043 1.6585
-0.064441 0.42244 1.6236
-0.062309 0.38204 1.5715
-0.05954 0.35566 1.5007
-0.056122 0.31104 1.4149
-0.046567 0.24522 1.144
-0.035313 0.17418 0.8949
-0.027295 0.12807 0.68806
-0.023667 0.1019 0.59162
-0.022836 0.092656 0.57172
-0.022622 0.0833 0.56217
-0.022285 0.07673 0.55399
-0.022153 0.068399 0.55379
-0.021952 0.061736 0.54871
-0.021872 0.053743 0.54644
-0.021771 0.047983 0.54541
-0.021732 0.040022 0.54213
-0.0217 0.034288 0.54187
-0.021616 0.026528 0.53832
-0.021511 0.020918 0.53778
-0.021518 0.013144 0.53776
0 0 -1
0 0 -1
0 0 -1
0 0 -1
0 0 -1
0 0 -1
0 0 -1
0 0 -1
0 0 -1
0 0 -1
0 0 -1
0 0 -1
0 0 -1
0 0 -1
0 0 -1
0 0 -1
0 0 -1
0 0 -1
-0.021941 -0.11397 0.54978
-0.022071 -0.12271 0.55159
-0.022295 -0.12976 0.5553
-0.022549 -0.13938 0.56466
-0.022883 -0.14773 0.57307
-0.023685 -0.16137 0.59892
-0.029839 -0.21113 0.74928
-0.059346 -0.44117 1.4929
-0.064826 -0.50052 1.626
-0.064943 -0.52353 1.63
-0.065012 -0.54155 1.6335
-0.064884 -0.56539 1.6318
-0.064862 -0.58076 1.6294
-0.064569 -0.60283 1.6256
-0.064463 -0.61904 1.6207
-0.064243 -0.63939 1.6171
-0.077453 0.57127 1.498
-0.078261 0.56079 1.5223
-0.079685 0.5525 1.5418
-0.081054 0.53776 1.5668
-0.083135 0.53459 1.609
-0.083789 0.51924 1.6242
-0.084748 0.50774 1.6448
-0.085903 0.48962 1.6607
-0.086112 0.47582 1.6652
-0.086102 0.45222 1.6605
-0.084204 0.42412 1.6482
-0.082923 0.39017 1.6145
-0.078713 0.36365 1.5158
-0.075501 0.32128 1.4405
-0.062976 0.257 1.2304
-0.048174 0.18117 0.94382
-0.038694 0.14051 0.7478
-0.034347 0.11416 0.66499
-0.030227 0.094329 0.58172
-0.029796 0.084473 0.57052
-0.029221 0.077216 0.56106
-0.028969 0.068396 0.55471
-0.028795 0.062472 0.55215
-0.028647 0.053958 0.54923
-0.028532 0.048167 0.54666
-0.028322 0.040218 0.54573
-0.028336 0.034426 0.54345
-0.028273 0.026621 0.54015
-0.028239 0.020966 0.53912
-0.028172 0.013214 0.5385
-0.028027 0.0076005 0.53784
0 0 -1
0 0 -1
0 0 -1
0 0 -1
0 0 -1
0 0 -1
0 0 -1
0 0 -1
0 0 -1
0 0 -1
0 0 -1
0 0 -1
0 0 -1
0 0 -1
0 0 -1
0 0 -1
-0.028544 -0.10841 0.54957
-0.028843 -0.11498 0.5529
-0.029079 -0.12376 0.55613
-0.029332 -0.13133 0.56372
-0.029578 -0.14058 0.56596
-0.030799 -0.15322 0.59231
-0.032877 -0.17322 0.63025
-0.063653 -0.34521 1.2248
-0.084424 -0.48252 1.6263
-0.084853 -0.50189 1.6345
-0.084879 -0.52537 1.6362
-0.084984 -0.54257 1.6381
-0.084792 -0.56573 1.6327
-0.084622 -0.58184 1.6327
-0.084405 -0.60335 1.6253
-0.084261 -0.61903 1.6242
-0.083903 -0.64175 1.6203
-0.095526 0.57537 1.4974
-0.096488 0.56041 1.5213
-0.098237 0.55249 1.5408
-0.10003 0.53888 1.5658
-0.10267 0.53422 1.6091
-0.10371 0.52073 1.6232
-0.10541 0.50912 1.6531
-0.10596 0.49169 1.6682
-0.10677 0.47621 1.6738
-0.10662 0.45367 1.6789
-0.10559 0.43053 1.6545
-0.10333 0.39741 1.6164
-0.098626 0.36873 1.551
-0.094727 0.32571 1.484
-0.080232 0.26969 1.2747
-0.06285 0.18912 0.96406
-0.059465 0.17186 0.94499
-0.042952 0.11492 0.67151
-0.038427 0.09676 0.60007
-0.037168 0.085586 0.57887
-0.036755 0.078316 0.56822
-0.036012 0.068954 0.55995
-0.035723 0.062637 0.55732
-0.03552 0.054644 0.55247
-0.035396 0.048423 0.55103
-0.035282 0.040307 0.54918
-0.03503 0.034574 0.54559
-0.034931 0.026728 0.54351
-0.034839 0.021043 0.54263
-0.034792 0.013267 0.54162
-0.034762 0.007652 0.54152
-0.034757 -9.2597e-05 0.54037
-0.034634 -0.0056707 0.54034
-0.034627 -0.01337 0.53995
-0.034617 -0.018942 0.53866
0 0 -1
0 0 -1
0 0 -1
0 0 -1
0 0 -1
0 0 -1
0 0 -1
0 0 -1
0 0 -1
0 0 -1
0 0 -1
-0.035313 -0.10077 0.55064
-0.035543 -0.10907 0.5527
-0.035825 -0.11571 0.55597
-0.036081 -0.12471 0.56148
-0.036333 -0.13203 0.56583
-0.037485 -0.14395 0.58058
-0.039808 -0.1593 0.61809
-0.048802 -0.20647 0.76121
-0.10377 -0.45647 1.6179
-0.1047 -0.48479 1.636
-0.10505 -0.50328 1.6408
-0.105 -0.52648 1.6379
-0.10488 -0.54375 1.6388
-0.10468 -0.56633 1.6371
-0.10467 -0.58209 1.6343
-0.1043 -0.60458 1.6307
-0.104 -0.62092 1.6274
-0.10382 -0.64176 1.6231
-0.11408 0.57737 1.4998
-0.11522 0.55894 1.5227
-0.11716 0.55239 1.5426
-0.11911 0.53906 1.5647
-0.122 0.53482 1.6113
-0.12328 0.52046 1.6316
-0.12524 0.51216 1.6569
-0.12651 0.49169 1.6678
-0.12751 0.4797 1.6753
-0.12802 0.45627 1.6814
-0.12804 0.43538 1.6782
-0.12525 0.40395 1.6423
-0.12056 0.37416 1.5922
-0.11662 0.33709 1.5248
-0.10017 0.27783 1.3271
-0.079681 0.20788 1.0467
-0.074803 0.17937 0.96511
-0.072534 0.16243 0.94655
-0.047544 0.10097 0.62646
-0.045366 0.08771 0.59514
-0.044211 0.079618 0.57922
-0.043442 0.070116 0.56878
-0.042822 0.063176 0.56016
-0.042521 0.054815 0.55769
-0.042236 0.048828 0.55254
-0.042124 0.040684 0.552
-0.042026 0.034696 0.54963
-0.041974 0.026845 0.54556
-0.041734 0.021137 0.54554
-0.04172 0.013347 0.54376
-0.041465 0.0076724 0.54252
-0.041383 -9.5116e-05 0.54142
-0.041472 -0.0057043 0.54139
-0.041374 -0.013448 0.54125
-0.0415 -0.019129 0.54344
-0.041219 -0.026781 0.5398
0 0 -1
0 0 -1
0 0 -1
0 0 -1
0 0 -1
0 0 -1
-0.041652 -0.072977 0.5439
-0.041648 -0.081087 0.54563
-0.041852 -0.086795 0.54853
-0.042019 -0.095359 0.55104
-0.042308 -0.10134 0.55235
-0.042572 -0.11006 0.5558
-0.042845 -0.11682 0.56268
-0.043259 -0.12545 0.56573
-0.044203 -0.13537 0.5782
-0.046146 -0.14903 0.6037
-0.055676 -0.18773 0.7299
-0.10358 -0.36932 1.3585
-0.12479 -0.46185 1.6375
-0.12507 -0.48644 1.6409
-0.12527 -0.50434 1.6434
-0.12497 -0.52789 1.6413
-0.12496 -0.54489 1.6405
-0.12476 -0.56647 1.6388
-0.12451 -0.5836 1.6371
-0.12416 -0.60496 1.6318
-0.12397 -0.6205 1.6298
-0.12353 -0.64073 1.6241
-0.13278 0.57727 1.5079
-0.13412 0.56079 1.5245
-0.13577 0.55302 1.5475
-0.13798 0.53976 1.5633
-0.14128 0.53776 1.6098
-0.14308 0.52134 1.6316
-0.14587 0.51238 1.6555
-0.14722 0.49442 1.6668
-0.14807 0.47948 1.6784
-0.14865 0.45764 1.6944
-0.14867 0.43878 1.686
-0.14741 0.41101 1.6664
-0.14202 0.37981 1.6262
-0.13672 0.34416 1.5459
-0.12179 0.29067 1.3817
-0.096219 0.21374 1.0931
-0.092819 0.19964 1.0888
-0.093067 0.18482 1.0915
-0.068372 0.12616 0.78497
-0.055091 0.092062 0.62504
-0.052536 0.0816 0.59542
-0.051138 0.070686 0.57936
-0.050405 0.064172 0.56958
-0.049861 0.05519 0.56384
-0.049502 0.049046 0.5591
-0.048985 0.041015 0.5531
-0.048835 0.034993 0.5519
-0.048808 0.026997 0.55003
-0.048711 0.021258 0.54847
-0.048409 0.013363 0.54689
-0.048421 0.0076964 0.54674
-0.048307 -9.8211e-05 0.5459
-0.048244 -0.0057408 0.54587
-0.048234 -0.013527 0.5456
-0.048247 -0.019168 0.54543
-0.048249 -0.026961 0.54441
-0.048223 -0.032587 0.54411
0 -0.040339 -1
0 -0.046039 -1
-0.048381 -0.053829 0.54389
-0.04833 -0.059656 0.54685
-0.04837 -0.06774 0.54689
-0.048497 -0.073555 0.54825
-0.04865 -0.081542 0.54923
-0.048858 -0.087596 0.55178
-0.049065 -0.095911 0.55281
-0.049316 -0.10224 0.55672
-0.049868 -0.11119 0.5638
-0.050134 -0.11759 0.56436
-0.051292 -0.129 0.5784
-0.053412 -0.14019 0.60422
-0.060072 -0.16834 0.68047
-0.11522 -0.33669 1.3069
-0.14469 -0.4453 1.637
-0.14522 -0.46371 1.645
-0.14534 -0.48837 1.6466
-0.14533 -0.50514 1.6487
-0.14538 -0.52892 1.644
-0.14524 -0.54484 1.6465
-0.14486 -0.5683 1.6403
-0.14449 -0.58392 1.6363
-0.1441 -0.6057 1.6338
-0.14381 -0.62099 1.6306
-0.14338 -0.64152 1.6244
-0.15056 0.57483 1.5114
-0.15269 0.56232 1.527
-0.1545 0.55197 1.5459
-0.157 0.5403 1.5642
-0.16112 0.53862 1.6088
-0.16298 0.52128 1.63
-0.16617 0.51473 1.658
-0.16776 0.49462 1.6733
-0.16905 0.47895 1.6958
-0.17045 0.46077 1.7051
-0.17075 0.44132 1.7071
-0.16947 0.41543 1.6899
-0.16557 0.38892 1.6556
-0.15937 0.35185 1.6161
-0.14421 0.3024 1.4418
-0.11331 0.22572 1.1452
-0.11354 0.21428 1.1474
-0.13589 0.23392 1.3621
-0.13853 0.22342 1.3867
-0.076233 0.1125 0.76
-0.062741 0.085737 0.62524
-0.059844 0.073513 0.59622
-0.05836 0.06539 0.58
-0.057332 0.056052 0.56978
-0.05687 0.050033 0.56432
-0.056568 0.041243 0.56006
-0.055865 0.035288 0.55489
-0.055506 0.02732 0.55501
-0.055534 0.021388 0.55126
-0.055482 0.013491 0.55036
-0.055399 0.007749 0.54821
-0.055255 -0.00010149 0.54701
-0.055195 -0.0057882 0.54698
-0.055062 -0.013586 0.54684
-0.055047 -0.019284 0.5479
-0.055212 -0.027068 0.5473
-0.055214 -0.03276 0.54699
-0.055165 -0.040714 0.54647
-0.055306 -0.046525 0.5484
-0.055373 -0.054288 0.55045
-0.055353 -0.060184 0.55014
-0.055539 -0.068103 0.55177
-0.055477 -0.073836 0.55294
-0.055671 -0.082058 0.55416
-0.055999 -0.088079 0.55588
-0.056222 -0.096922 0.56143
-0.056999 -0.10371 0.56466
-0.057237 -0.11225 0.56488
-0.0585 -0.12079 0.57948
-0.060804 -0.13457 0.60491
-0.067009 -0.15528 0.66567
-0.11492 -0.28294 1.1453
-0.16495 -0.42248 1.6402
-0.16541 -0.44734 1.6476
-0.16574 -0.46583 1.6508
-0.16582 -0.4889 1.6519
-0.16589 -0.50681 1.6513
-0.16567 -0.52868 1.6504
-0.16524 -0.54613 1.6457
-0.16467 -0.56787 1.6399
-0.16461 -0.5843 1.6388
-0.16386 -0.6056 1.6344
-0.16363 -0.62204 1.6315
-0.16287 -0.64443 1.6216
-0.16871 0.57835 1.5072
-0.17113 0.56529 1.526
-0.17321 0.55178 1.5442
-0.17575 0.5413 1.5654
-0.18124 0.53923 1.6184
-0.183 0.52079 1.6363
-0.18649 0.51505 1.6582
-0.18866 0.49401 1.678
-0.19004 0.48281 1.6991
-0.19256 0.46259 1.7089
-0.19308 0.44607 1.7131
-0.19178 0.42003 1.711
-0.18888 0.39841 1.6918
-0.18426 0.36192 1.6347
-0.16731 0.31405 1.5082
-0.13205 0.23228 1.1758
-0.13232 0.2205 1.178
-0.15791 0.24118 1.399
-0.1674 0.24205 1.505
-0.16778 0.22118 1.5082
-0.087221 0.10709 0.78593
-0.071459 0.078441 0.63548
-0.067161 0.067364 0.5979
-0.065695 0.057434 0.58528
-0.064456 0.050341 0.57011
-0.064278 0.041837 0.56754
-0.063367 0.035626 0.55977
-0.062798 0.027511 0.55922
-0.062664 0.021659 0.55671
-0.062451 0.013561 0.55345
-0.062414 0.0078217 0.55337
-0.062299 -0.00010605 0.55153
-0.062299 -0.0058315 0.5515
-0.062286 -0.013699 0.55022
-0.062184 -0.019456 0.55169
-0.062011 -0.027287 0.55014
-0.062116 -0.033158 0.55146
-0.06218 -0.040944 0.55255
-0.062395 -0.046787 0.55304
-0.062359 -0.054981 0.55454
-0.062737 -0.060777 0.55525
-0.062635 -0.068528 0.55527
-0.06261 -0.074525 0.55713
-0.062863 -0.082514 0.55973
-0.063588 -0.089174 0.56286
-0.064035 -0.098195 0.56503
-0.06438 -0.10441 0.57011
-0.06597 -0.11496 0.58418
-0.068376 -0.12699 0.6118
-0.076787 -0.15196 0.68264
-0.11965 -0.24781 1.067
-0.18507 -0.40592 1.6423
-0.1862 -0.426 1.6514
-0.18634 -0.44949 1.6532
-0.18638 -0.46688 1.6562
-0.18626 -0.49075 1.6541
-0.18621 -0.50751 1.6552
-0.18557 -0.53012 1.65
-0.18516 -0.54669 1.6494
-0.18492 -0.5688 1.6441
-0.18448 -0.58413 1.6401
-0.18379 -0.60642 1.6352
-0.18337 -0.62218 1.6307
-0.18315 -0.64254 1.6253
-0.18599 0.57765 1.5032
-0.18975 0.56456 1.5248
-0.19184 0.55394 1.5435
-0.19517 0.54059 1.565
-0.2005 0.53896 1.6163
-0.20292 0.52162 1.6343
-0.20668 0.51511 1.6627
-0.20939 0.49678 1.6828
-0.21218 0.4854 1.7005
-0.21429 0.46553 1.7236
